ply
format ascii 1.0
element vertex 360
property float x
property float y
property float z
property float nx
property float ny
property float nz
property uchar diffuse_red
property uchar diffuse_green
property uchar diffuse_blue
end_header
0.009207301439964705 -0.019048928364326534 -0.027407454057897462 0.25950460929079355 0.24180458651796385 -0.9349801600545913 0 0 255
0.010771459270080441 -0.017162323809809782 -0.03434402192146557 0.27719259741527574 0.24662608022585714 -0.9286225500657422 0 0 255
0.011560639692286573 -0.015781886507151788 -0.03754834930814188 0.2831561057776025 0.24963196601137988 -0.9260164692413179 0 0 255
0.01099818909501779 -0.01645932743341666 -0.03607111382678496 0.18946671198213239 0.17012469475744554 -0.9670366866279508 0 0 255
0.008941893456983208 -0.01638295922288585 -0.04104016947246414 0.236765621255479 0.21571009201302305 -0.9473178963765228 0 0 255
0.00976751699303316 -0.0154063022632768 -0.044949216568711425 0.2207071042886964 0.20138436361302667 -0.9543231696907891 0 0 255
0.008366278673304334 -0.01664228745920207 -0.03962692257367073 0.2029758758321005 0.17199508314590004 -0.9639597943917716 0 0 255
0.008424030631866503 -0.0165776192028686 -0.0405752059662281 0.2301442932694628 0.21164120342347104 -0.9498639930479333 0 0 255
0.006112461554755783 -0.016325744466396674 -0.03589842445346081 0.196374787462263 0.17101574785010729 -0.965500158900256 0 0 255
0.005810616838028693 -0.016684297036629575 -0.035470676860315686 0.26016912619373683 0.2299716352413957 -0.9377766646488842 0 0 255
0.006029126121733758 -0.016001154204787288 -0.03638591061971008 0.19236993792718166 0.16830617092111458 -0.9667816919096911 0 0 255
0.005713775255937581 -0.016375031868979123 -0.03590677943624376 0.23045737207072278 0.196742290287751 -0.9529857663525656 0 0 255
0.004998851809748406 -0.020395437140055178 -0.023702007777850365 0.2388810783801391 0.21323386886010037 -0.9473474270630049 0 0 255
0.0032594473062982077 -0.02245664704018932 -0.01771845522692561 0.2820549811191377 0.24027165757790334 -0.9288242665814936 0 0 255
0.007295241051759133 -0.017252535945634195 -0.03341964268783282 0.26498619791604466 0.23566025022292153 -0.9350115300780354 0 0 255
0.004536923616811461 -0.020511623527984912 -0.023494771476891274 0.1810448278028767 0.15781847350440337 -0.9707296738776283 0 0 255
-0.0021476778882560388 -0.018981688194651375 -0.028510062474607967 0.2367543393562465 0.20765485137273326 -0.949118983846259 0 0 255
0.001822993821237101 -0.014536350926500907 -0.043809318701998445 0.239680081657343 0.21049997945761717 -0.9477569398875811 0 0 255
-0.002822865475303721 -0.01931913574929406 -0.026817286544447927 0.2344329932238044 0.2038810547618922 -0.9505123287981624 0 0 255
-0.0028350275714242035 -0.019347187320122583 -0.027485845993371116 0.24312214310516544 0.21287203799312304 -0.9463493641212033 0 0 255
-0.0056323997320237296 -0.016351584176006545 -0.026876058227287003 0.11068018339763772 0.09114613489134055 -0.98966776197744 0 0 255
-0.0008342023892187467 -0.011169194472220617 -0.04488928206221543 0.16494493198523855 0.1392892142210776 -0.9764177815945692 0 0 255
-0.005986446558946978 -0.016322453186146474 -0.026374684783451396 0.08489391805372384 0.06954346423866184 -0.9939601245820546 0 0 255
-0.007336180885755633 -0.017803611705774824 -0.022214321440746088 0.12685965746619324 0.10448300057198256 -0.9864025192075673 0 0 255
-0.0029362665423142975 -0.009931206499879025 -0.04679064309830705 0.14310454986344032 0.11933092407107052 -0.9824872611737653 0 0 255
-0.0032092386420892183 -0.010244671252284593 -0.0464934298717129 0.12457953630381638 0.11212874056438207 -0.9858534803274631 0 0 255
-0.003182840161785605 -0.00979794388008437 -0.04665504381415475 0.08396509500606027 0.06666719825859511 -0.9942360622593471 0 0 255
-0.008520135432067338 -0.015484021472983944 -0.028420265139601164 0.12204637642822568 0.10112633119443759 -0.9873591783843875 0 0 255
0.005554218614967132 -0.015351184336464568 -0.023709874513487605 0.21671666566106898 0.182675083258054 -0.9589909805526908 0 0 255
0.006568161921156668 -0.014188903255045765 -0.028396021626575507 0.2306691882223942 0.20073841781443016 -0.9521007369066473 0 0 255
0.002927370738796342 -0.017960229886468226 -0.015102243321039377 0.09608971431104797 0.07253509912048213 -0.9927262594487984 0 0 255
0.004530724755592519 -0.01387121688471768 -0.032121245163012846 0.05266332742585323 0.04096875385865817 -0.9977715846583857 0 0 255
0.0025690927695281307 -0.01611510836492336 -0.02538285015472108 0.12669759979991274 0.1141784839799418 -0.9853481577599784 0 0 255
0.0054389349054294045 -0.01242198149093185 -0.036384050790261746 0.03877127377688543 0.030946263118588738 -0.9987688006384224 0 0 255
0.0023749475013383203 -0.015912755253242178 -0.02546020311435615 0.26081905043485165 0.2017607196831533 -0.9440688719172974 0 0 255
-0.004716674320485698 -0.01620235517297497 -0.013475965959056868 0.2211023566641087 0.18534946406464936 -0.9574754952731295 0 0 255
-0.004797374883624528 -0.01631025457171356 -0.013909689967672945 0.1078150068461542 0.08503747657754339 -0.9905274109665454 0 0 255
-0.0038187473149313977 -0.014805728089806125 -0.017615511563877084 0.19750962218049062 0.15692845972606978 -0.9676587247961562 0 0 255
-0.004697484056063045 -0.015781063924970223 -0.015089519237064586 0.1095751621322511 0.08626395130281138 -0.9902281628742524 0 0 255
-0.008048276283332545 -0.017785617719962538 -0.008173055747955571 0.16143156986437343 0.1283708377734086 -0.9784992469391467 0 0 255
-0.0024608481605163934 -0.011787826452508032 -0.029388145355148776 0.13900173125900805 0.11872246865382752 -0.9831497821510918 0 0 255
-0.0004110673283481414 -0.009154781570699377 -0.036976194813909125 0.07451117166735532 0.06072318493871984 -0.9953696700762265 0 0 255
-0.008231823701927682 -0.017583370219066474 -0.009042035612258137 0.18998349533684342 0.15042882593452925 -0.9701945371045719 0 0 255
-0.007594352667016219 -0.023234097345478044 0.015602300697077132 0.23538153320373664 0.1841647458729048 -0.9542949649894558 0 0 255
-0.007795501344147943 -0.023474629903887212 0.015585335982425508 0.2208186351955453 0.17427721710400232 -0.9596179354039092 0 0 255
-0.00787825207665463 -0.023104625525557282 0.015813912445427514 0.21971581492353134 0.17274567726166545 -0.9601478488544861 0 0 255
-0.007184118366826642 -0.022351734841322912 0.01238607903417055 0.2955891907908255 0.23741291656142327 -0.9253443344709167 0 0 255
0.00369483479633681 -0.010313049092070703 -0.03051266236607897 0.1729442131633633 0.13867950291416245 -0.9751196309196046 0 0 255
0.0036118664241995 -0.010421153508787806 -0.030923812835369158 0.14822805814541856 0.12059881280839985 -0.9815723962742855 0 0 255
0.003470297030760794 -0.010148889845630948 -0.03046658984635653 0.14491084529018464 0.11706908031862692 -0.9824946195021299 0 0 255
0.0034121947340511327 -0.010229674351557305 -0.030971660770249376 0.1595386918563703 0.1293827880024216 -0.9786764020704078 0 0 255
-0.004018417628956605 -0.014088321141298737 -0.007397206826935898 0.12864173189559913 0.08527711282939178 -0.9880177725336645 0 0 255
-0.003177626107153997 -0.013200716725558032 -0.01130467116093492 0.10266015343926509 0.06842090598611007 -0.9923605557053679 0 0 255
-0.0032898087480357496 -0.012880241782142782 -0.010964046654108328 0.1371804563359785 0.09452829509805151 -0.986025316016434 0 0 255
-0.0032180563091115666 -0.012824666641430588 -0.011975499848753568 0.1195026855006012 0.0845241883675044 -0.9892293817608528 0 0 255
-0.003326728532996759 -0.014386151663565022 -0.007553097364254691 0.12962828724247213 0.08732780160771986 -0.9877096548140784 0 0 255
-0.0025804999333840783 -0.013595031576866368 -0.01111828045245411 0.007132480668850119 0.004723541743508807 -0.9999634072669389 0 0 255
-0.0035161212624405525 -0.014168249029246238 -0.007669931799771823 0.11309840424998781 0.07717546342962309 -0.9905820000386284 0 0 255
-0.0037499814724529235 -0.014442857670640186 -0.007537060840439258 0.1428694336535739 0.09426834633603108 -0.9852420026605531 0 0 255
-0.005179547045946725 -0.011951430796152712 -0.015543512587164021 0.08117909620478586 0.05460905077337298 -0.9952023944469814 0 0 255
-0.00664806608286353 -0.013534415132293809 -0.010858735686168797 0.13835977730945304 0.09108617115277833 -0.9861845067975897 0 0 255
-0.006808707338381292 -0.013262909918295901 -0.010344783719989259 0.012609330975644316 0.008158584655930196 -0.9998872147741258 0 0 255
-0.0018706047753012378 -0.009399183418868029 -0.023975988837209083 0.0435606589389536 0.029789877155755592 -0.9986065452478514 0 0 255
-0.004855373962063647 -0.012607126865356921 -0.013630041127845494 0.17333848358626325 0.11989078992883366 -0.9775377069956203 0 0 255
-0.0020955765900239343 -0.009230160978522056 -0.023938772836114897 0.04172759124301881 0.02804648057198043 -0.9987353017975189 0 0 255
-0.004125779152521797 -0.011415030889406597 -0.017140775510500528 0.08066749639427863 0.05391413693830615 -0.9952818801041625 0 0 255
-0.017981649274067285 -0.014750387496448025 0.010711044897347866 0.29004520579472154 0.20121534771452088 -0.9356207364309654 0 0 255
-0.020736096936769366 -0.017047699973455566 0.020476325216316926 0.35050763750634084 0.23401934108790337 -0.9068513351407204 0 0 255
-0.02116132681945307 -0.017509799718462365 0.02124600293687895 0.18609244804579836 0.1260402820028064 -0.9744144129131993 0 0 255
-0.0035676892077740607 -0.01095367340816178 0.004152123730248092 0.3511114196234585 0.2518946943299711 -0.9018147448220228 0 0 255
-0.0038087496670409504 -0.011235091761598814 0.004305431739857424 0.3338160104840499 0.23906170192410184 -0.9118203626908452 0 0 255
0.0011406064889333267 -0.020247697853344793 -0.06086882567843699 0.15995497564287625 0.17659159632229202 -0.9712001924811545 0 0 255
0.0009297540828817064 -0.020084860863158555 -0.060846154803177455 0.16536153129253964 0.18223339718752152 -0.9692505109196907 0 0 255
0.0014293269070727033 -0.019518646264410716 -0.06327502766042425 0.20756958722615915 0.22401986909339042 -0.952223694680059 0 0 255
-0.0012594120305866041 -0.018414951293887954 -0.0642667201025563 0.176691656507951 0.2081387253037817 -0.9620074477619148 0 0 255
-0.002331454664949828 -0.019634553114296516 -0.06118401129081208 0.07885733783394784 0.0810266400768436 -0.993587542125806 0 0 255
-0.0014867843665430647 -0.018272230450051774 -0.06418409580666129 0.06882257606263065 0.07279932696525541 -0.994969201039665 0 0 255
-0.0029050330118690626 -0.0198785004208569 -0.05990330346860184 0.05968136444680479 0.06054282391797736 -0.9963797976724561 0 0 255
0.005138873259821902 -0.02145227644890549 -0.05687416556003422 0.09949743851096317 0.08898552032275829 -0.9910508750324803 0 0 255
0.004778023999518544 -0.02125371705426829 -0.055658823987349115 0.14673527296928385 0.13936828244594457 -0.9793085527629671 0 0 255
0.004788769363638007 -0.021244248294444407 -0.05637951357490367 0.16239190875836026 0.15173410348444405 -0.9749900665184176 0 0 255
-0.0013141371435124727 -0.016673148004938132 -0.047794021696492384 -0.022837384035481176 -0.02036436514336216 -0.9995317636387169 0 0 255
-0.001666339193089117 -0.0170806659973467 -0.04721052265769832 -0.034291583744301905 -0.030382807087970788 -0.9989499348404617 0 0 255
-0.0015374253248840175 -0.016516069072592426 -0.04774065474508127 -0.1281080387025947 -0.08849392029115695 -0.9878042095938228 0 0 255
-0.0018548882802314204 -0.01688448067859416 -0.04728214487602189 -0.13867388998378913 -0.09677864664598812 -0.9855980142990016 0 0 255
0.010194809692700035 -0.015955375226201274 -0.046395107155688176 -0.1267384052697401 -0.11618735299743084 -0.9851080527704225 0 0 255
0.01005053559043323 -0.015707117267016957 -0.04663808845693085 -0.03414796423469986 -0.03416080467639813 -0.9988327967995878 0 0 255
0.009884285123399755 -0.015907696607153993 -0.04671551664314244 0.02613664414435346 0.021915376555734372 -0.9994181267634141 0 0 255
0.006758100091695085 -0.016709819606845755 -0.04674351205163785 -0.0065374580000170926 -0.005276762348834073 -0.9999647080882464 0 0 255
0.008265855003349615 -0.014947669244975842 -0.05312751634875357 -0.11663768615252836 -0.1161364965731057 -0.9863609706049349 0 0 255
0.0059360513875172105 -0.017255089701352533 -0.044429962448854554 -0.10036666054348385 -0.08009240794468765 -0.9917216038994869 0 0 255
-0.0003483585744354645 -0.01344525952874337 -0.0406478644750079 0.22656364640675566 0.20967260528078474 -0.9511605083904834 0 0 255
-0.002126627159580591 -0.015421349152358044 -0.03486709447722802 0.19273512595472003 0.1599505151130775 -0.968126543349721 0 0 255
0.0005479929667718542 -0.012053896986537443 -0.04467499909318995 0.22577294891395755 0.19779035565250577 -0.9538896952738041 0 0 255
-0.0007317736133525266 -0.013477956559625914 -0.04070937180232648 0.16557289517473814 0.1531700380888271 -0.9742302375800714 0 0 255
-0.006464904734767102 -0.020349392111052772 -0.016156058638618576 0.23170279418027975 0.19472211150810767 -0.9530986908284341 0 0 255
-0.006729260959996153 -0.020658578049071397 -0.015912959379192793 0.1387275367485039 0.11661259071187229 -0.9834409866561175 0 0 255
-0.0011068459370526806 -0.014032708651197795 -0.036525382509000615 0.23351970648075338 0.20553017284207856 -0.9503819730701167 0 0 255
-0.0017168189403450607 -0.014721266975317032 -0.03499812711968098 0.17365397776604266 0.15437253102444073 -0.9726322108953306 0 0 255
-0.002885088456099305 -0.019330845613316744 -0.02372052786077483 0.23485323492701615 0.2124460799932436 -0.9485307697380302 0 0 255
-0.0031766226056950675 -0.01967196149314393 -0.023365079546055267 0.20166152437310594 0.1748305371610135 -0.9637255381401422 0 0 255
-0.0031982573585659924 -0.019259346286576717 -0.023361981457903802 0.22458463734219652 0.2000030957267573 -0.9537088142455157 0 0 255
-0.0034399110248206077 -0.019544408413339737 -0.023191199261681117 0.22932242401567604 0.19514221508023843 -0.9535883502524307 0 0 255
-0.005213872929671903 -0.020488548321712763 -0.019746536141697968 0.19483725607932673 0.16441602644570832 -0.966956986577626 0 0 255
-0.008271462954701991 -0.02390337662187994 -0.009278873988608938 0.26237688795835024 0.22192660133467187 -0.9390990109063756 0 0 255
-0.005362642950174745 -0.020230923692812236 -0.01999774677977717 0.12796228947672553 0.1068994165937463 -0.9860010989871114 0 0 255
-0.005488714629091729 -0.02038726171218508 -0.020255625630391405 0.1907611532105664 0.1658183142766618 -0.9675300869100769 0 0 255
-0.0036037039256956727 -0.008976217734706443 -0.05073441955285263 0.3309519616632205 0.2774623508377131 -0.9019342786139554 0 0 255
-0.009044948099366013 -0.014732313832692828 -0.032303433496134404 0.14213025211636174 0.10330617118036933 -0.984442393657136 0 0 255
-0.006006377888732983 -0.011110528278781867 -0.043031845873562014 0.31562520178976006 0.2646314243001861 -0.9112359416024085 0 0 255
-0.007802962637070837 -0.013024104670853243 -0.03740482936712308 0.125475043048627 0.10502853977075596 -0.9865216771088043 0 0 255
-0.01840322217779189 -0.02028719816651861 -0.010114135215449793 0.18577433409699542 0.1466841579906286 -0.9715820369816428 0 0 255
-0.01593127653122961 -0.017772047346843095 -0.01932986359139588 0.2389493587733959 0.1924551200366399 -0.9517690007105009 0 0 255
-0.018970262527699122 -0.020487732199334335 -0.009622025956180003 0.26091256686242054 0.2055962425058235 -0.9432151491153805 0 0 255
0.006507240192555941 -0.015507587843396065 -0.022659195208202254 0.2689166862769691 0.21081813900460888 -0.9398082400726477 0 0 255
0.0072505643128198405 -0.014650550858273215 -0.026322818859293773 0.22594830003963437 0.18326764831238337 -0.9567446549582851 0 0 255
0.006285709217415059 -0.015335776044424876 -0.022632814940716228 0.28861407059571637 0.2277784500272625 -0.9299563946537218 0 0 255
0.00610528375552441 -0.015552915248539495 -0.022681214459165044 0.25170499122746237 0.19420286638148881 -0.948119108593639 0 0 255
0.0007844038155652155 -0.017304835121338652 -0.020976164813850007 0.18514391209985878 0.14542223483045524 -0.9718920235444243 0 0 255
0.000632309428049399 -0.017489575065799345 -0.021137438876787762 0.17850297177677835 0.14019582301306377 -0.9739003133157667 0 0 255
0.004923989292682285 -0.012200977749891623 -0.03746607136101532 0.16298408802773182 0.12521108914229315 -0.9786513016419941 0 0 255
0.0009672628941811146 -0.016686122942991655 -0.023221116704617573 0.15059239975952138 0.11679586112811569 -0.9816723770983935 0 0 255
-0.00334193292724988 -0.007774587915979847 -0.03825503337506564 0.2738287081411753 0.19544776624638663 -0.9417101514091439 0 0 255
-0.0035588877932486718 -0.00802793431596921 -0.03816216452536192 0.2651165267071077 0.18783248610192835 -0.9457442489550377 0 0 255
-0.0035289161706741623 -0.0075737295866147025 -0.03834031914407343 -0.10754995786416506 -0.07388751908470534 -0.9914502716157395 0 0 255
-0.0036505401499937473 -0.007727287021678547 -0.03858932901970047 0.09472037964120007 0.064094488657839 -0.9934384461074159 0 0 255
-0.010296716230231373 -0.013064293844654379 -0.01859646580715202 0.16462216294227824 0.11276853040817104 -0.9798891784369227 0 0 255
-0.010707051164708048 -0.013518351298097475 -0.017839815962723438 0.15745847425396445 0.10900288463621802 -0.9814913142899416 0 0 255
-0.011580965087648193 -0.013984836376453008 -0.014802136695980406 0.1490156828654385 0.10386541804778848 -0.9833647854148049 0 0 255
-0.014825951357332362 -0.017369350938362477 -0.003976772785017735 0.16985134477860778 0.11519638401630451 -0.9787136015129587 0 0 255
-0.007689967983863261 -0.022009823990759708 0.01335931209173391 0.2060248843845033 0.14386916820865794 -0.9679129141887203 0 0 255
-0.008056399694918087 -0.02243264568035369 0.013972558847636263 0.18279588445487066 0.12630080112612954 -0.9750044985851396 0 0 255
-0.00794739134443781 -0.021852201918287878 0.013472343948787047 0.16392521826957357 0.1117082276516983 -0.9801274379845659 0 0 255
-0.008191149728384806 -0.022139376886367357 0.013619030167332014 0.16317441223960746 0.11223394600681551 -0.980192660936613 0 0 255
0.0017053996486971756 -0.009091026660854568 -0.03305118131739537 0.09858664069082511 0.0694453251993329 -0.9927023829352164 0 0 255
-0.00751480032091939 -0.01914795667605973 0.0006569970804819469 0.2104165644624476 0.1459915123373385 -0.9666495475224086 0 0 255
-0.01193830219247663 -0.023501013194080017 0.01708759807143645 0.035572168937514685 0.023343643645590533 -0.9990944375275185 0 0 255
-0.0064768527992989655 -0.01759074339322042 -0.004046784401407821 0.231249006845474 0.16595643071631785 -0.9586356763321934 0 0 255
-0.008375554635892207 -0.012420257448100408 -0.015258317047868064 0.2231406033815335 0.1553198205512042 -0.9623325955543992 0 0 255
-0.006838860142331565 -0.010843371719910067 -0.021533550789982203 0.15954554649913236 0.11231543683742976 -0.9807805367360787 0 0 255
-0.010052905399835138 -0.013757121185018317 -0.009981493016178455 0.16400342642838314 0.11425043429715356 -0.9798212665494976 0 0 255
-0.010224696391506416 -0.013964336287830725 -0.010082195217721357 0.2006027748975291 0.14025625446890633 -0.969580687609734 0 0 255
-0.008836925931570233 -0.01110299675133894 -0.018203705380761548 0.1250166913053623 0.08583855539157498 -0.9884344031362664 0 0 255
-0.013505089618003119 -0.01595760766378615 -0.0021495428502696923 0.22032127055773698 0.1552265162010542 -0.9629970230524643 0 0 255
-0.008899268388109227 -0.010761077590975748 -0.01876117186940418 0.22420852820699844 0.1550820414331125 -0.9621227033513916 0 0 255
-0.009039868224822306 -0.01093570650323486 -0.018963976975529873 0.22002982793560485 0.15187143062628214 -0.9635984347113451 0 0 255
-0.0027580968981479326 -0.013726946938306256 -0.0082030678854077 0.2178772059671905 0.14828144194426673 -0.9646461201367367 0 0 255
0.002351030643926222 -0.00819224421539097 -0.028277684661131675 0.1259930291218979 0.08106058227424047 -0.9887137799252369 0 0 255
-0.0029531729517596195 -0.013515792052345377 -0.008297510363332372 0.18953890706631826 0.13223044639114123 -0.9729286262389987 0 0 255
-0.002987819400055547 -0.013574259096836433 -0.00891558723071928 0.16489790120541709 0.11122028657901056 -0.9800197600208534 0 0 255
-0.0047628870002729695 -0.013914059502236092 -0.00927648255884983 0.20276231833631678 0.14309180222057383 -0.9687167689268883 0 0 255
-0.004940118972792895 -0.01412712718144038 -0.009355915438769569 0.19019101450691417 0.13087121821361497 -0.972985150063512 0 0 255
-0.004245290427344839 -0.012938825578771573 -0.012027972405151965 0.17821625830675206 0.12488467847973168 -0.9760342116730105 0 0 255
-0.005664507237446992 -0.01448436309223805 -0.007476542893643967 0.1797348266389507 0.13333386136429362 -0.9746370983636697 0 0 255
-0.008578046163194242 -0.006295427190282421 -0.024838919441157903 0.18580232910945804 0.1262291311193338 -0.974445329895094 0 0 255
-0.010118835326451248 -0.007413357642437529 -0.01942254778820396 0.16913221959016594 0.11315409544447494 -0.9790763213256903 0 0 255
-0.01015535090947467 -0.007484096621817954 -0.01999367845456823 0.1681116654926869 0.11260940128820775 -0.9793148577790426 0 0 255
-0.017741246632003882 -0.012885328656260214 0.0015091954647984407 0.22490424779768725 0.15390830815668213 -0.9621487993044029 0 0 255
-0.01789668913165296 -0.013076962057298552 0.0013375768038805802 0.22429593023111621 0.1524601863515528 -0.9625212866526164 0 0 255
-0.021009820162763343 -0.015711746548966482 0.012231704038876079 0.2512513070463649 0.16479631187137528 -0.9537897862218307 0 0 255
-0.022223308863922486 -0.016951978270660473 0.01577095255576233 0.03611528025125567 0.022712182267110984 -0.9990895071559098 0 0 255
-0.002802037906116356 -0.008451776841166603 -0.014995826328728201 0.2061282957666214 0.141069214952253 -0.9683029496377171 0 0 255
-0.0030456365647288652 -0.008734473018556038 -0.014819060517106797 0.2107071456790702 0.1474293267457239 -0.966367990144066 0 0 255
-0.002615540464666888 -0.007844276010580187 -0.01650731148861473 0.24843730512758444 0.1772351272190544 -0.9522954452797667 0 0 255
-0.0036399660930294397 -0.00894876913493875 -0.013412239234402823 0.22756582573345435 0.16366927131525613 -0.9599094564516927 0 0 255
-0.0046877674953131054 -0.009090496376371132 -0.001388279624628841 0.3056572057862803 0.21471007833258937 -0.9276169763503344 0 0 255
-0.005098455308721939 -0.0095481129726957 -0.0005919416351179985 0.4052515006320472 0.27052435690027543 -0.873262728827451 0 0 255
-0.004683043355395683 -0.008667889171761145 -0.0022448577348644916 0.310877911924442 0.21851679502482937 -0.9249893697603101 0 0 255
-0.005357150966770863 -0.009400081027903545 -0.00045443602668404637 0.41325205158248635 0.27706860507006825 -0.8674420614354554 0 0 255
-0.006045162255867792 -0.008594726211706372 -0.004951484188210564 0.23706772069009732 0.1602299681832299 -0.9581885269104422 0 0 255
-0.01836326591077342 -0.006475414520253714 0.007682003019782724 0.3564381107212538 0.2214443684737278 -0.9076972319538795 0 0 255
-0.011412764489962535 0.00011119225306796543 -0.017684428645198924 0.29560233953146314 0.17654480680269283 -0.9388563191748381 0 0 255
-0.011677172052798696 0.00029104910904440007 -0.016818018843978932 0.3351560761366574 0.20815565724793492 -0.9188806380506443 0 0 255
-0.011633907896890672 0.0002891925483518021 -0.017670501924105575 0.2806464961080698 0.17112626981969692 -0.9444328160329137 0 0 255
-0.01740644572726388 -0.0029070952404149086 -0.0033860526410556258 0.29775075278162394 0.17568723744440448 -0.9383381500382096 0 0 255
-0.01742960334320981 -0.002974994920976637 -0.004013328123161353 0.27290810188464626 0.16140782691443623 -0.9484032271858205 0 0 255
-0.016422084061519848 -0.0015904293973278416 -0.007612241667436348 0.27814447192930725 0.16455541825103617 -0.9463388225468684 0 0 255
-0.017798065116884337 -0.0029261410262361176 -0.0035017506577039725 0.22525905903826882 0.13429786399987503 -0.9649986735981894 0 0 255
-0.001839424713983212 0.0010675891765980494 -0.01868650999209176 0.30109506232875743 0.18268316509238589 -0.9359319551297892 0 0 255
-0.004316812614326482 -0.0014531955861804557 -0.010148744833997969 0.27575646556456224 0.16591606947573131 -0.9467999945020409 0 0 255
-0.001915058832762745 0.0013885245476387975 -0.019210278461087582 0.2949224176492771 0.18370627592035801 -0.9376954578941815 0 0 255
-0.002037304808988283 0.0012317082503634502 -0.01948005332218372 0.23568352376784682 0.14236957308976034 -0.9613449855710541 0 0 255
0.0040821070357612566 -0.017543809776613767 -0.042063970804681494 0.1660635413060297 0.13608617642258625 -0.9766798108057632 0 0 255
0.003942086626628538 -0.017713921272535182 -0.04224691140053527 0.295451460724094 0.2604603195403427 -0.9191674800061965 0 0 255
0.003847500416375299 -0.017398035892497193 -0.04197019797211621 0.23521603686128226 0.20024743064732778 -0.9510911536348214 0 0 255
0.003701746601189465 -0.01757483213922209 -0.04213178697172382 0.24878937458830414 0.2142328812202895 -0.944567689314013 0 0 255
0.010613185798389602 -0.014832075274601925 -0.050273210980607 0.19229227064514198 0.15674857403336614 -0.9687381313794982 0 0 255
0.010458323578486167 -0.015019082329047362 -0.05039017913399102 0.308973152825454 0.2696074307471076 -0.9120567000570975 0 0 255
0.010411069060868638 -0.014655348676275576 -0.05028832925528459 0.2974062007030762 0.24777526077192097 -0.9220395717824523 0 0 255
0.010237466420795177 -0.014864614653556568 -0.05033343583277183 0.23901933781131332 0.1963693340306461 -0.9509515449299201 0 0 255
-0.0031667564648068247 -0.017850376105241178 -0.048775254514851984 0.29056974486297477 0.23629090447068343 -0.9272194086809724 0 0 255
-0.00343594053190302 -0.01816477556910409 -0.04849336644710078 0.14992999646525426 0.12204727165295903 -0.9811347815881352 0 0 255
-0.003478919198672603 -0.01779163944589851 -0.04840898146780481 0.1435241010451461 0.11926189365554216 -0.9824344421593111 0 0 255
-0.003527006329539617 -0.01786104247035028 -0.04890743063422842 0.13255095411861206 0.11089912754293223 -0.9849526019420742 0 0 255
-0.0033660643952266034 -0.012974525770844791 -0.04006361805553171 0.29594534048751275 0.2561662190154031 -0.9202147704091055 0 0 255
-0.0023530480360686445 -0.011902604990031013 -0.044371317293164014 0.24337647052200712 0.21921574190828422 -0.9448345633473889 0 0 255
-0.0019046580521463463 -0.01099924001786251 -0.046044871865854264 0.009150803549394541 0.007487095324429918 -0.9999301006560425 0 0 255
-0.0018662732349242483 -0.010979041033259002 -0.04685791335033451 0.10266018541862987 0.08535756604020357 -0.991047411706173 0 0 255
-0.0010252079191510333 -0.010576281649526148 -0.04570430310016649 0.05463966072425822 0.046396378738702025 -0.9974276332225175 0 0 255
-0.0011410608726139526 -0.0107219574310779 -0.04596716786277355 0.1415095850567484 0.11882824137062874 -0.9827791646091356 0 0 255
-0.006599184495865912 -0.0161811276542054 -0.02642106988439108 0.12058516765414844 0.08997558129099423 -0.9886170199390503 0 0 255
-0.0015098147814358032 -0.010720725638857703 -0.045391616805141255 0.05394944315089634 0.04571646297553573 -0.9974965977870374 0 0 255
-0.0032023564451666986 -0.019263927231510575 -0.02334687312345851 0.1933959812796411 0.15966969804108455 -0.9680411055075883 0 0 255
-0.0037435261881549053 -0.019883741667613336 -0.02207345214674239 0.23424880411835505 0.198227324943305 -0.9517528173926999 0 0 255
-0.004058230723102518 -0.019797029432340518 -0.020991621285230577 0.14047371851367407 0.11974346565728405 -0.9828166852670562 0 0 255
-0.005183657765833183 -0.021067471958079426 -0.01757462608839022 0.19832179524941618 0.16204972821826238 -0.9666479975220742 0 0 255
-0.0067594220555415585 -0.020560353189699676 -0.01943788435782623 0.24756932613244484 0.2040147226376938 -0.9471469905486646 0 0 255
-0.00826624507763199 -0.022238464433434357 -0.014687115386885607 0.2617172663592232 0.21730361377315777 -0.9403633403799734 0 0 255
-0.00869101202367345 -0.02226275460096122 -0.013221694482816293 0.16791206510087311 0.1376151487758994 -0.9761493785384219 0 0 255
-0.0007351750958971837 -0.013534312158625772 -0.04276556901363071 0.13470544430182857 0.11105953829288799 -0.9846421797940699 0 0 255
-0.00541855103145375 -0.009835614991299146 -0.04986350178132504 0.1900742637320968 0.1560234276677302 -0.9692927650021503 0 0 255
-0.005625722331452088 -0.010078285761424194 -0.04980060042431478 0.05305840839755634 0.04004618509619672 -0.9977881079455494 0 0 255
-0.012993369470853916 -0.017358280767752393 -0.02425712176436179 0.06317964938703778 0.04877831643388554 -0.9968094139549479 0 0 255
-0.0073491988703821565 -0.011488613366523709 -0.044538265415248635 0.165902394991781 0.14250714826048697 -0.9757910165761184 0 0 255
-0.0158756510940343 -0.016590045671786846 -0.023812866111493802 0.16234126557447487 0.12983245903153864 -0.9781558393597115 0 0 255
-0.01611400281984457 -0.01686489236554295 -0.023675398288272698 0.1502256467988157 0.11967670907789049 -0.9813815467738138 0 0 255
-0.02145146700610112 -0.021881545052350376 -0.005496307613441331 0.05051252250432429 0.038881607109793964 -0.9979662848507508 0 0 255
-0.01614871791142461 -0.01649724198995267 -0.02429881284813573 0.13937033265878684 0.10912679628968795 -0.9842089476864798 0 0 255
0.00625676615816359 -0.016046081937352324 -0.02464788286544972 0.2087223458501369 0.17302265589360735 -0.9625477353826865 0 0 255
0.007132403028147105 -0.015033522279262412 -0.028807769560188712 0.15784761162543517 0.1318674970584362 -0.9786189732085154 0 0 255
0.007008177645349473 -0.014745114960560385 -0.028408584879646148 0.24696861340760573 0.20282660376321246 -0.9475589020200303 0 0 255
0.006930379975069123 -0.014842983986925268 -0.028849900136392215 0.20974464193599549 0.16828409419577736 -0.963165431698962 0 0 255
0.00231779470143767 -0.015007535643187936 -0.031986778941556215 0.10152002584060073 0.08316469892332168 -0.9913512582361093 0 0 255
0.003331152091098827 -0.013875706270606525 -0.0365103421001044 0.10814614336625415 0.08692495550499701 -0.9903274528081406 0 0 255
-0.004340007838325305 -0.02209295787222118 -0.0077936739432742375 0.17347062837854454 0.13666254075766662 -0.9753108689251915 0 0 255
0.003960545227161355 -0.01275252790518977 -0.039660846360109914 0.07811326700829258 0.05934483373206866 -0.9951766216238223 0 0 255
-0.017093799783233443 -0.016600993300446648 -0.007250938093256609 0.3828476767607313 0.2826132692634076 -0.8795211176743623 0 0 255
-0.016956539497168105 -0.016494180396869007 -0.008434832391232328 0.1585627115814301 0.10648740079883591 -0.9815896800430678 0 0 255
-0.016949209971779927 -0.016043335953131427 -0.008530074418222289 0.33150669889368345 0.24477492535776324 -0.911146829278747 0 0 255
-0.017168371263692667 -0.01629877594550211 -0.00846986649715098 0.26178783836393643 0.19302668525635172 -0.9456256270129754 0 0 255
-0.0184577103941046 -0.014404519829404078 -0.011535337921353306 0.22937892969345428 0.175143872048283 -0.9574497013925171 0 0 255
-0.017280719327737226 -0.013266835968837182 -0.01627362993852899 0.3987330338569587 0.3025012875271175 -0.8657395328594286 0 0 255
-0.019201120051633824 -0.014739750921645006 -0.009739750826437854 0.17779386495242697 0.13369944539647965 -0.974942972632734 0 0 255
-0.017376416794796068 -0.012960753599350394 -0.016698188426222615 0.3315466294049684 0.2344583982992723 -0.9138413932390808 0 0 255
0.0035699586007947592 -0.012158676274488772 -0.01782109963429268 0.24358763411649406 0.18157794094730606 -0.9527300330454928 0 0 255
0.003442493521628537 -0.012316034527871361 -0.018080162834525515 0.3800211005352868 0.2804845481428159 -0.8814263335078376 0 0 255
0.0027351006223325924 -0.012669077784301541 -0.015426399818797565 0.37580707335983854 0.28122728194499996 -0.8829950506670694 0 0 255
0.002644091509984403 -0.012785847723320004 -0.015829150052419694 0.20169447714332023 0.14424174430462885 -0.9687691454055712 0 0 255
-0.005307698774798891 -0.016907459610626258 -0.0053041335797704425 0.3516920825580737 0.26874498933007146 -0.8967099920129946 0 0 255
-0.008404866312241355 -0.02030267238536612 0.005538978412323092 0.2884326771366304 0.20919083253463672 -0.9343691916706489 0 0 255
-0.002327780599505447 -0.013242185963127623 -0.017283336269170557 0.28260943370851055 0.20756118281098368 -0.9365096173393311 0 0 255
-0.005817072878835289 -0.0170559381787192 -0.004974876181963128 0.30914484130636033 0.22249592672779603 -0.9246215602521956 0 0 255
-0.01735954303434767 -0.013762089524805038 -0.006813074029174193 0.3450078148196498 0.2499478024009241 -0.9047075238928428 0 0 255
-0.016916665597472347 -0.013355085051519194 -0.009060843198129276 0.2295573495741997 0.1552613509029394 -0.9608315857486488 0 0 255
-0.01193666540000618 -0.007947314820585027 -0.02648083071357532 0.24330477572369735 0.17616095945077387 -0.9538186947609195 0 0 255
-0.019657908143055847 -0.01568336993758826 -0.00029160999204425053 0.2313823805462578 0.15156144224243148 -0.9609845592922609 0 0 255
-0.01716215169281113 -0.011723705239503057 -0.010618247516893775 0.21313885055886037 0.1437399065561106 -0.966390536815054 0 0 255
-0.016796598537942242 -0.01139925817222992 -0.012583100843421291 0.39535458644331156 0.2931787993660636 -0.870483166167222 0 0 255
-0.017434354376419686 -0.011589870058010654 -0.010440397423884806 0.19126045869341138 0.1308885857117285 -0.9727731570467851 0 0 255
-0.017613186909072875 -0.011804055543071124 -0.010518013254714687 0.3730624982642833 0.2601034968485739 -0.8906012257548018 0 0 255
0.0015337855110937049 -0.00806474714443925 -0.02756733772335307 0.30803386784084613 0.21510273131753055 -0.9267394192774722 0 0 255
0.0013671941843839686 -0.008265704005861685 -0.02766426044449055 0.2643982628979436 0.18669361700158088 -0.9461707308659558 0 0 255
0.0012822788505360005 -0.00792743394573353 -0.02742379466317857 0.292446748115794 0.20294363086310094 -0.9344992146645169 0 0 255
0.0012075860857846399 -0.008029270605776906 -0.027866288332415112 0.2789535276327876 0.19989474133074045 -0.9392694085349208 0 0 255
-0.0012814293953393174 -0.00670872975158035 -0.03507930525653702 0.2999964325357631 0.2140260449596476 -0.9296208864611134 0 0 255
-0.0016431529154830593 -0.00666473671316023 -0.033830201718745734 0.3612498455975676 0.2581202042985511 -0.896031533590536 0 0 255
-0.0018423952214349226 -0.006899802649766307 -0.03380227417702453 0.28517525717514175 0.20076686280498146 -0.9372127503905063 0 0 255
-0.01382904648691144 -0.01644337205671989 -0.02576286193633659 0.11044947343988025 0.08033577166515483 -0.9906296369520837 0 0 255
-0.01425732043605743 -0.016915393686808916 -0.02496624051134444 0.2102837509580432 0.1535734892526923 -0.9655029401725138 0 0 255
-0.01874231091253034 -0.02111130055850932 -0.009574358263721439 0.2097497467151505 0.15454472113362636 -0.9654641230634414 0 0 255
-0.014468476554577031 -0.01672900082922832 -0.024985321694223517 0.23444514689460266 0.17121893195707702 -0.9569323646094566 0 0 255
-0.019882151580338292 -0.019992833762919937 -0.00950814523311605 0.18068673053431397 0.11960884614397327 -0.9762407640192697 0 0 255
-0.02139038444257782 -0.02156326780649892 -0.00504079192621909 0.323913206538056 0.24679249946056656 -0.9133310992407085 0 0 255
-0.01993580482874366 -0.01963608396276212 -0.010084782295872619 0.2939696947485606 0.22670464810246688 -0.9285401558888957 0 0 255
-0.021802046127981617 -0.02156781255422327 -0.00439881458714575 0.32717419856996477 0.24489064465606253 -0.9126804566495546 0 0 255
0.003248679290820067 -0.01577477192704632 -0.02788802735379614 0.2532940180207477 0.19140072141668452 -0.9482657350532486 0 0 255
0.00486372554682199 -0.013943162495978823 -0.03475893170238242 0.26089743444542074 0.19914979205300318 -0.9446014445389351 0 0 255
0.0024052268885068895 -0.01631307977673449 -0.02549415507451469 0.23369513016652013 0.17892719592649103 -0.9557047895110374 0 0 255
0.0028916330197306384 -0.015770879646568398 -0.028074139677214394 0.37807738727156176 0.3039157828827237 -0.8744670869442089 0 0 255
0.001331916104162889 -0.012336426226497749 -0.04248442755268389 0.029733023134018988 0.021497028455579114 -0.9993266858754908 0 0 255
0.0013486401358611122 -0.012334302369433864 -0.043239672287179176 0.05345629926627102 0.03768774450560602 -0.9978587364867009 0 0 255
0.0011068691968494082 -0.012179105320387934 -0.04242664360882564 0.031225734457156797 0.022655982716901033 -0.9992555528766115 0 0 255
0.00027122600429146937 -0.01311815238682898 -0.04005994795685308 0.25817912088369405 0.1883093591715134 -0.9475669510847964 0 0 255
-0.024748315095683704 -0.015421485101023175 0.01365886760216295 0.17291468985866917 0.10375511617550144 -0.9794566789289297 0 0 255
-0.017005831565036433 -0.007959696935290889 -0.01382322573601047 0.02865065459312158 0.017823560069071636 -0.9994305682226504 0 0 255
-0.023658880983379343 -0.013955014469140437 0.00910147496907765 0.0858924574555148 0.052966316787204155 -0.9948954995567374 0 0 255
-0.017342600102525974 -0.007889476957027353 -0.01341890319227479 0.0035653887833376505 0.0022305681739412664 -0.9999911562451165 0 0 255
-0.0016059001132622264 -0.008079306401799768 -0.013384511927213016 0.0034877781211871232 0.002217751107350398 -0.9999914584554226 0 0 255
-0.006064502422437862 -0.007581471234700959 -0.017586677832457265 0.08056532462914132 0.05023124202394166 -0.9954828229518243 0 0 255
-0.005328057168850209 -0.0063900716015679315 -0.0203556526879618 0.06694802721598109 0.04131396254189867 -0.9969007564201037 0 0 255
-0.005214439067399157 -0.00630351329786899 -0.02148513429179033 0.0810388192451571 0.053272127786750605 -0.9952862855361883 0 0 255
-0.015794618286639805 -0.022563335434221538 -0.027939388333720228 0.3179952215145476 0.2668334020941471 -0.9097686379628488 0 0 255
-0.01595659613194883 -0.022759691947034255 -0.02806037138496098 0.3106760500472793 0.262675222487523 -0.913499928526626 0 0 255
-0.01605830512331194 -0.022432977465467324 -0.02777888963605457 0.384406574317804 0.34556137104941625 -0.8560484358140596 0 0 255
-0.016194942449682864 -0.02260261460455354 -0.02798602402725392 0.37335992281149377 0.31121748949111494 -0.8739256503118804 0 0 255
0.0035085870485174475 -0.01790589706278589 -0.05046550195679056 0.29875547398237884 0.25005270632972065 -0.9209879536794966 0 0 255
0.004121595464688432 -0.017205400046399283 -0.05339976703399618 0.30608941274213625 0.26587686454437237 -0.9141218541897068 0 0 255
-0.002897727805213801 -0.018994009373224513 -0.048150169312693114 0.1987070963452056 0.171183750904793 -0.9649930638549807 0 0 255
-0.0026756939867663143 -0.018339806878462706 -0.04967415343351034 0.4677629106879928 0.4270655752151585 -0.7738299902761864 0 0 255
-0.003014867069208227 -0.018732937825488544 -0.049143429486035894 0.39270496495371415 0.3451992653092501 -0.8524202471379103 0 0 255
-0.002122419250707136 -0.01277793289697135 -0.040206202882802744 0.22973483903642292 0.19466605836855883 -0.9535864037685089 0 0 255
-0.0008721460536443293 -0.011440256828146006 -0.04539896625555706 0.370196953027914 0.29930346758437654 -0.8794155162724936 0 0 255
-0.0009011520914253279 -0.01105158403694409 -0.045364933519232986 0.18311159519597536 0.15419280454455547 -0.9709246740769697 0 0 255
-0.0009005565394441806 -0.011070953659040511 -0.0460475499625399 0.18532787279906812 0.1505333304012408 -0.9710784190795733 0 0 255
0.0031339719715501035 -0.011839808379908473 -0.0404524559076368 0.1614649385086298 0.13308758957954284 -0.9778633683354293 0 0 255
0.0029225942002321648 -0.012090488606917721 -0.04037011443879912 0.08390597421910474 0.06744314149797564 -0.9941887195875977 0 0 255
0.0028876871347475463 -0.01170550387257463 -0.040316116364658816 0.153498680870993 0.12576266415286305 -0.9801132114587779 0 0 255
0.0028365027120353936 -0.0117777762295935 -0.04082940031038551 0.16247203476296876 0.1303810751882508 -0.9780611500068573 0 0 255
-0.011092592890168534 -0.01753364479809369 -0.03662634184185665 0.07345707229596962 0.059727844070020485 -0.9955082336035459 0 0 255
-0.012421719143892285 -0.01896347320847061 -0.0327230236802164 0.295625108327839 0.25044135625905395 -0.9218920340263708 0 0 255
-0.011196179482813678 -0.01724094795624123 -0.03700224980251521 0.128523339005963 0.10713141056985567 -0.9859029425861713 0 0 255
-0.007209527620051226 -0.013060656730838782 -0.05136143276570204 0.21117515893961739 0.1755701958994881 -0.9615509131391029 0 0 255
-0.019988937881355473 -0.016554057459184285 -0.0096776312245207 0.22248718893972 0.16037867563601052 -0.9616538520480957 0 0 255
-0.018966703918639 -0.015566772521417915 -0.013864486427036526 0.13100235320978237 0.09079732047346864 -0.9872153919223189 0 0 255
-0.01897646264775199 -0.015136904800220286 -0.01389728675482671 0.21105447758762433 0.1491865661210756 -0.9660224510741026 0 0 255
-0.019170417277393215 -0.015366167693662919 -0.013921640127818824 0.15470173492773986 0.10380154432024327 -0.9824930598264193 0 0 255
-0.0038242558360094825 -0.017851323281973225 -0.015584905990425835 0.17703100970313632 0.122122797016417 -0.9765992238643112 0 0 255
0.0008933916084654381 -0.012655429694396286 -0.033839051256866814 0.1227497643588983 0.08334856064713748 -0.9889315005539491 0 0 255
-0.0030645007718297923 -0.0165907480816887 -0.019217097116799753 0.17436560158404849 0.12557322763194587 -0.976641183591153 0 0 255
0.002504744876548476 -0.010468226989119367 -0.04060215080263274 0.12443234676295839 0.085897653481294 -0.9885030016168238 0 0 255
-0.001888841024659721 -0.009657465761206685 -0.0442760401178629 0.15294471146876154 0.10796665702461829 -0.9823192537076049 0 0 255
-0.0020138457068223925 -0.00981348053281439 -0.04450707911332907 0.1918191625371894 0.14007571504543898 -0.9713826243751945 0 0 255
-0.0025765666324940317 -0.00999338743119535 -0.04256015442517114 0.1692089877736247 0.12024960738657005 -0.9782169239897668 0 0 255
-0.021252353294142157 -0.013087280906199289 -0.016433135753882833 0.25559139199587344 0.16657199200944908 -0.9523270508683537 0 0 255
-0.019370154199685824 -0.011291820754356197 -0.02343013768129043 0.2989609306999096 0.20330275546329185 -0.9323574161962122 0 0 255
-0.01977354913996579 -0.011252043932986067 -0.022137884251406503 0.29171400217604454 0.19975822931977508 -0.9354141279419842 0 0 255
-0.020131627395923363 -0.011639869430062233 -0.021604612633398523 0.2836894905161512 0.19312945999115033 -0.9392663544779049 0 0 255
0.002705224819549712 -0.011113089585181452 -0.02311733346180478 0.27411097266895634 0.18376505483701625 -0.943977531132615 0 0 255
0.0027890646707794675 -0.011036706397567764 -0.024175505557408106 0.2905811376451158 0.19535750946699917 -0.9366952791274874 0 0 255
0.002527010891346243 -0.010893038485199902 -0.023256901643734174 0.20519168680590796 0.13772989459973295 -0.9689823774451694 0 0 255
0.0025709125911283215 -0.010861450582617643 -0.024161356453968885 0.25988810687407843 0.17416587542519193 -0.9498023056103749 0 0 255
-0.0015389298960373221 -0.008139648659911458 -0.03674561637575813 0.3252358533359261 0.2280290669118006 -0.9177278378409285 0 0 255
-0.0017355961304363066 -0.007948173529889885 -0.03679777977844767 0.20428411088779738 0.14062608612208627 -0.9687581256127691 0 0 255
-0.0018675906727588232 -0.008112182043053473 -0.037012230585505845 0.22445521645479524 0.15370313063371752 -0.9622864456281328 0 0 255
-0.016659582312644028 -0.014223233609028246 0.008341705870994365 0.29075756763318406 0.17624253343937973 -0.9404246946305183 0 0 255
-0.007214460320382254 -0.004755864897407258 -0.02622784711640369 0.19264881884325485 0.11998829226136243 -0.9739041237814432 0 0 255
-0.017490057248488622 -0.014639721487732238 0.010504386104592145 0.29539477401063424 0.18537311539192647 -0.9372186167469668 0 0 255
-0.015761204937555756 -0.012940182455949939 0.0035812795170032663 0.39045964653888293 0.2481684199932364 -0.8865402978673848 0 0 255
-0.005178414438808454 -0.025178853887928315 -0.05224658292252682 0.1929738280329865 0.18775422334696978 -0.9630729221142454 0 0 255
-0.028740615630041738 -0.02069516697784768 0.007375963850049794 0.23640116018434812 0.15486924666015808 -0.9592340735724567 0 0 255
-0.015299186184357355 -0.007610188078378932 -0.038376314898271535 0.16951149526120934 0.11348315152406886 -0.9789726386853078 0 0 255
-0.015435359572937624 -0.007321041801014477 -0.037980701558814944 0.17117899655627794 0.11341205819881245 -0.9786906846359043 0 0 255
-0.0026404867218898787 -0.011129264782536702 -0.035928333542831536 0.1696172034095067 0.11126549929934426 -0.9792088607509665 0 0 255
-0.0009013959015836126 -0.009286329542730343 -0.04291424691389112 0.1367534477593688 0.08911593095335557 -0.9865884883659662 0 0 255
-0.0028716907542520598 -0.010973529688992956 -0.035857454474417905 0.16297768657483874 0.10577389959588149 -0.9809435028802597 0 0 255
-0.001330525824799672 -0.009346998153288794 -0.04211947420313322 0.2277870011030382 0.15770097930508195 -0.9608555995854438 0 0 255
-0.011661337433862662 -0.01356897626070469 -0.028575357595132966 0.12506713089695623 0.07961636624217053 -0.9889486574112916 0 0 255
-0.01593646351410216 -0.017535388374416816 -0.013777133506782668 0.2141199269437894 0.14498032415186118 -0.9659882827935375 0 0 255
-0.01691701659019848 -0.018574457359119473 -0.011067864061508836 0.285574791669452 0.18840401794870965 -0.9396547048696832 0 0 255
-0.010918776671402175 0.0025651143610016247 -0.0577107999348877 0.2764928521025196 0.17907497409597034 -0.9441842279919432 0 0 255
-0.010623465093591827 0.002801616162809245 -0.05931538298801686 0.24568929547025714 0.16032203178355536 -0.9559987532502965 0 0 255
-0.028099681608469457 -0.013230293570911239 -0.0013320236061641344 0.35892601088053644 0.21820495826802555 -0.9075013580709587 0 0 255
-0.025932767076174867 -0.01047213230551014 -0.00450993117017473 0.29492412765136317 0.17659750535937926 -0.9390596786306643 0 0 255
-0.02703200025379876 -0.011548863240451651 -0.0015231379745985762 0.3145348132091768 0.19920621453481507 -0.9281081485312892 0 0 255
-0.027075577745869772 -0.011144505548174755 -0.0014414415531354141 0.32742916019474877 0.21256834857398452 -0.9206545727028627 0 0 255
-0.027913707176588476 -0.011975425735916534 0.0006676353776536859 0.33156329058152 0.20528246363031627 -0.9208283740549171 0 0 255
-0.016154218664806708 -0.014560433951473828 -0.006435425505487369 0.238468791873308 0.14604018038695182 -0.9601067133475484 0 0 255
-0.01604792861906501 -0.01400937774999167 -0.006879883820771204 0.22900247806169396 0.14796052295715095 -0.9621151431548356 0 0 255
-0.015825260522868118 -0.013819054442564593 -0.008369873265181793 0.21351517102340725 0.13048745358196515 -0.968186085523098 0 0 255
0.005361756838635323 -0.01834770995887386 -0.06755647882813276 0.1397452021524653 0.13492318241667436 -0.9809520953247021 0 0 255
-0.008298747214294022 -0.02140775607144582 -0.05566441229033903 0.13629252156131547 0.1163342115901938 -0.9838143624587651 0 0 255
-0.008448271273848118 -0.02158944057513207 -0.05579894842370503 0.08679290666046735 0.0710780332878507 -0.9936875286212253 0 0 255
-0.004571263687993293 -0.016928841675176165 -0.06897823838243522 0.024226303858345583 0.020659796978723822 -0.9994930009710729 0 0 255
-0.004400021750440214 -0.016759022580163346 -0.07018225798686228 -0.08662223856040956 -0.06952547657459682 -0.9938122538456943 0 0 255
-0.0003667473220321793 -0.016127530704368148 -0.064990530573943 0.04109804429153482 0.0362054114212212 -0.9984989328683487 0 0 255
-0.0043934399501312504 -0.020642754958080434 -0.05157799076114633 0.005328322177458829 0.004155548072402205 -0.9999771699408898 0 0 255
-0.0044075407847908865 -0.020238751555064022 -0.05159423306318067 0.0009967641778459192 0.0007704742372797225 -0.9999992064149968 0 0 255
-0.011602985477394134 -0.024633273698778463 -0.05295247575078943 0.05364063617451171 0.04513120605194633 -0.9975399021548413 0 0 255
-0.01163001554199422 -0.024242929401058433 -0.052921462969467425 0.25374938387828383 0.2239800898125248 -0.9409804299500414 0 0 255
-0.007643396916628048 -0.01990702931299712 -0.06685473742628723 0.08894814158574824 0.07808897195932335 -0.9929704630887959 0 0 255
