ply
format ascii 1.0
element vertex 362
property float x
property float y
property float z
property float nx
property float ny
property float nz
property uchar diffuse_red
property uchar diffuse_green
property uchar diffuse_blue
end_header
0.059442415374891644 -0.00834737732400085 -0.033672655752899516 -0.9458606187718845 0.24611013539628454 -0.2116069259539729 0 0 255
0.05923821459260392 -0.008766967071004494 -0.03324790505800982 -0.9458606187718845 0.24611013539628454 -0.2116069259539729 0 0 255
0.059459198396704493 -0.007900300906599829 -0.033227700382001964 -0.9458606187718845 0.24611013539628454 -0.2116069259539729 0 0 255
0.05925499398107739 -0.008319893358252062 -0.032802936592119566 -0.9458606187718845 0.24611013539628454 -0.2116069259539729 0 0 255
-0.03069784911420076 0.017705030487167414 -0.0543787218407341 -0.9596977021120657 0.22937328751831898 -0.16238292870206367 0 0 255
-0.030519240600852593 0.01846269713839939 -0.05436407553020599 -0.9596977021120657 0.22937328751831898 -0.16238292870206367 0 0 255
-0.030671478907771832 0.018091278572130873 -0.05398897910707631 -0.9596977021120657 0.22937328751831898 -0.16238292870206367 0 0 255
-0.04529241747164725 0.031043819780320885 -0.05623761704829706 -0.9644749806783424 0.11463841648559486 -0.23800429641329246 0 0 255
-0.04455448632047465 0.03671955139909502 -0.05779128315968505 -0.9847137591620682 0.13008030324900682 -0.11583577695839432 0 0 255
-0.044647876712997026 0.036347395578770064 -0.057415296882645385 -0.9847137591620682 0.13008030324900682 -0.11583577695839432 0 0 255
-0.04454832212115717 0.03709965369350301 -0.05741684055672613 -0.9847137591620682 0.13008030324900682 -0.11583577695839432 0 0 255
-0.0446417121126888 0.03672755059982129 -0.05704079847795734 -0.9847137591620682 0.13008030324900682 -0.11583577695839432 0 0 255
0.017331476113376543 0.023413850503349952 -0.04422173121049822 -0.9567961425749514 0.14936041603724937 -0.24946464213365627 0 0 255
0.017459784185245852 0.024239529585327754 -0.044219489999210944 -0.9567961425749514 0.14936041603724937 -0.24946464213365627 0 0 255
0.017293284893539096 0.023843149020689243 -0.04381822145411061 -0.9567961425749514 0.14936041603724937 -0.24946464213365627 0 0 255
-0.08037067030663836 -0.01831820828737367 -0.05798876737430226 -0.895748399923125 0.3117198052204593 -0.3169630373852449 0 0 255
-0.08060075373936976 -0.01864070549086702 -0.05765570613747281 -0.895748399923125 0.3117198052204593 -0.3169630373852449 0 0 255
-0.08036998273798629 -0.01794919288942287 -0.057627799356086334 -0.895748399923125 0.3117198052204593 -0.3169630373852449 0 0 255
-0.08060006531510094 -0.018271725827635227 -0.05729477568085048 -0.895748399923125 0.3117198052204593 -0.3169630373852449 0 0 255
-0.058865411100605114 -0.01667554800799191 -0.055336535527900195 -0.9062102786704137 0.37868925422807037 -0.1880887544864901 0 0 255
-0.05908067953399937 -0.01701705576907328 -0.054986949781332145 -0.9062102786704137 0.37868925422807037 -0.1880887544864901 0 0 255
-0.058795798286017165 -0.01631598499551358 -0.054948001927705825 -0.9062102786704137 0.37868925422807037 -0.1880887544864901 0 0 255
-0.059011095491570575 -0.016657553664719146 -0.05459840018669884 -0.9062102786704137 0.37868925422807037 -0.1880887544864901 0 0 255
-0.0394188316460104 -0.016872480147380145 -0.047628917240583074 -0.9873015368514487 0.05041370321131695 -0.15064572300363682 0 0 255
-0.03949906858894542 -0.017269284877037314 -0.04723585157620465 -0.9873015368514487 0.05041370321131695 -0.15064572300363682 0 0 255
-0.0394556069629618 -0.016467182819100964 -0.04725226621436586 -0.9873015368514487 0.05041370321131695 -0.15064572300363682 0 0 255
-0.03953584499672802 -0.01686389084410987 -0.04685916103861859 -0.9873015368514487 0.05041370321131695 -0.15064572300363682 0 0 255
-0.07081844700484746 -0.0012392882757286255 -0.05984792300982306 -0.9360612128805652 0.3146555350081247 -0.157420773817549 0 0 255
-0.070992724469771 -0.0015833704897600942 -0.05949938576965665 -0.9360612128805652 0.3146555350081247 -0.157420773817549 0 0 255
-0.07076226899508875 -0.0008841439676744167 -0.05947210179595633 -0.9360612128805652 0.3146555350081247 -0.157420773817549 0 0 255
-0.07093656259304626 -0.001228257780386835 -0.05912353178497283 -0.9360612128805652 0.3146555350081247 -0.157420773817549 0 0 255
-0.0253485540360206 -0.0115775380904731 -0.047166797363070403 -0.9719469618235993 0.09148773228129495 -0.21667740593772364 0 0 255
-0.02547234598748771 -0.01196774855337586 -0.046776264070514946 -0.9719469618235993 0.09148773228129495 -0.21667740593772364 0 0 255
-0.025394659764977456 -0.011162761902954857 -0.04678485049775514 -0.9719469618235993 0.09148773228129495 -0.21667740593772364 0 0 255
-0.02551844668363812 -0.011552897657429395 -0.04639430823664247 -0.9719469618235993 0.09148773228129495 -0.21667740593772364 0 0 255
-0.05130603168288711 0.017217687988749078 -0.051697807808313484 -0.9702133104110124 0.11047944084472396 -0.21559319435441773 0 0 255
-0.04486722477098748 0.026971309418992596 -0.05177425653011542 -0.9483105952692422 0.23107780119861457 -0.2175087692331258 0 0 255
-0.04503733290775913 0.026613876872396823 -0.05141233723014671 -0.9483105952692422 0.23107780119861457 -0.2175087692331258 0 0 255
-0.04486052515036493 0.027353343393150716 -0.05139759930475522 -0.9483105952692422 0.23107780119861457 -0.2175087692331258 0 0 255
-0.045030634202879005 0.026995915305146688 -0.051035671275529645 -0.9483105952692422 0.23107780119861457 -0.2175087692331258 0 0 255
-0.012260870213218589 0.029039598460820264 -0.04359934295822834 -0.9173222573186087 0.15979315438824332 -0.3646724887327632 0 0 255
-0.012473210769552823 0.02867157275219838 -0.04322646939693335 -0.9173222573186087 0.15979315438824332 -0.3646724887327632 0 0 255
-0.01233757422222792 0.02945979184554772 -0.04322227497164595 -0.9173222573186087 0.15979315438824332 -0.3646724887327632 0 0 255
-0.012549885141856176 0.02909179766571917 -0.042849462145189234 -0.9173222573186087 0.15979315438824332 -0.3646724887327632 0 0 255
-0.02523739740122921 0.033130411505259416 -0.0465473931059209 -0.9720824856736083 0.20347981730667006 -0.11684008300006941 0 0 255
-0.025362754544951682 0.03275180809140814 -0.04616379760313011 -0.9720824856736083 0.20347981730667006 -0.11684008300006941 0 0 255
-0.025203645087311655 0.033517675794826854 -0.046153774473517956 -0.9720824856736083 0.20347981730667006 -0.11684008300006941 0 0 255
-0.025329005138454652 0.03313909146754533 -0.04577012154193917 -0.9720824856736083 0.20347981730667006 -0.11684008300006941 0 0 255
-0.0233156501936726 0.04074346057889536 -0.04876370173706456 -0.9345796765147789 0.19551740487430758 -0.29720998071522986 0 0 255
-0.0235087192173441 0.04038008400549328 -0.04839563892571163 -0.9345796765147789 0.19551740487430758 -0.29720998071522986 0 0 255
-0.023351729460029558 0.041145255045679494 -0.04838593259132768 -0.9345796765147789 0.19551740487430758 -0.29720998071522986 0 0 255
-0.023544785833610027 0.04078189659831945 -0.04801789763422516 -0.9345796765147789 0.19551740487430758 -0.29720998071522986 0 0 255
-0.02012328645610839 0.0548206536022314 -0.04652942723052534 -0.9749789338786922 0.05148990997428183 -0.2162518616419504 0 0 255
-0.02022930247906346 0.0544409189780955 -0.0461418657696087 -0.9749789338786922 0.05148990997428183 -0.2162518616419504 0 0 255
-0.020184419175605095 0.055226215676527614 -0.04615724329757208 -0.9749789338786922 0.05148990997428183 -0.2162518616419504 0 0 255
-0.0202904320714149 0.054846572014309355 -0.04576967427732019 -0.9749789338786922 0.05148990997428183 -0.2162518616419504 0 0 255
-0.05417903659519446 -0.018455745571575616 -0.0465064190025749 -0.87148792107988 0.36232706573507933 -0.3304964460439418 0 0 255
-0.054445572128700215 -0.018785383806656772 -0.04616497616750478 -0.87148792107988 0.36232706573507933 -0.3304964460439418 0 0 255
-0.05416476947082388 -0.01807436881958406 -0.04612593233036894 -0.87148792107988 0.36232706573507933 -0.3304964460439418 0 0 255
-0.05443131212175395 -0.018404068388875636 -0.04578453796872545 -0.87148792107988 0.36232706573507933 -0.3304964460439418 0 0 255
-0.017866478375620165 -0.02152605514173575 -0.03949057490025719 -0.9028589919853528 0.2739149482367567 -0.33138533721884506 0 0 255
-0.01811182717811055 -0.02188718472041208 -0.03912062315863736 -0.9028589919853528 0.2739149482367567 -0.33138533721884506 0 0 255
-0.0178856492802969 -0.021112021333840242 -0.03909611365514937 -0.9028589919853528 0.2739149482367567 -0.33138533721884506 0 0 255
-0.018130987649073615 -0.021473173316827632 -0.03872620885902231 -0.9028589919853528 0.2739149482367567 -0.33138533721884506 0 0 255
0.007878180025082948 -0.016801443693132356 -0.030492351988203437 -0.94634912566698 0.19809875364653526 -0.2553041639946978 0 0 255
0.007688005017583821 -0.017195739188503936 -0.03009336709005294 -0.94634912566698 0.19809875364653526 -0.2553041639946978 0 0 255
0.007857695908246254 -0.016372079327634917 -0.030083264764205885 -0.94634912566698 0.19809875364653526 -0.2553041639946978 0 0 255
0.007667527586525669 -0.016766354435834588 -0.029684288829509374 -0.94634912566698 0.19809875364653526 -0.2553041639946978 0 0 255
-0.05046023673203354 0.006632616942476299 -0.04496476912082562 -0.9641572092748059 0.1413227693562537 -0.2245634668972165 0 0 255
-0.05060018883745121 0.00626571937422242 -0.04459478529342971 -0.9641572092748059 0.1413227693562537 -0.2245634668972165 0 0 255
-0.0504887042343658 0.007024896769821751 -0.04459567427066171 -0.9641572092748059 0.1413227693562537 -0.2245634668972165 0 0 255
-0.05062865085887491 0.006658045767601761 -0.04422568467036134 -0.9641572092748059 0.1413227693562537 -0.2245634668972165 0 0 255
-0.05406233895884155 0.011159685674140524 -0.046324072397143576 -0.9498843540459257 0.1552109635098947 -0.2713471406613392 0 0 255
-0.054224118557435586 0.010801990681634704 -0.045962344888831816 -0.9498843540459257 0.1552109635098947 -0.2713471406613392 0 0 255
-0.05410211858174829 0.011551884196203233 -0.04596048075705801 -0.9498843540459257 0.1552109635098947 -0.2713471406613392 0 0 255
-0.054263887618248186 0.011194226963060175 -0.045598768624257616 -0.9498843540459257 0.1552109635098947 -0.2713471406613392 0 0 255
-0.04748060284936545 0.016931302386616096 -0.046977236424444214 -0.967915764195979 0.15518799616522178 -0.19762530016963167 0 0 255
-0.04761524851855531 0.01656389188053406 -0.04660629219049355 -0.967915764195979 0.15518799616522178 -0.19762530016963167 0 0 255
-0.04749447868848955 0.017319183762415355 -0.04660468707561804 -0.967915764195979 0.15518799616522178 -0.19762530016963167 0 0 255
-0.04762912160320942 0.01695181374871242 -0.046233724535123394 -0.967915764195979 0.15518799616522178 -0.19762530016963167 0 0 255
-0.038736663723422216 0.03523917879196158 -0.04368141277686115 -0.9536900041551228 0.1396085818957094 -0.2664297652959795 0 0 255
-0.038892997799322926 0.034875262625792734 -0.04331250344911268 -0.9536900041551228 0.1396085818957094 -0.2664297652959795 0 0 255
-0.0387813729960273 0.03563613423340552 -0.043313371418857056 -0.9536900041551228 0.1396085818957094 -0.2664297652959795 0 0 255
-0.03893769662074836 0.03527226376763129 -0.04294447555438696 -0.9536900041551228 0.1396085818957094 -0.2664297652959795 0 0 255
-0.033282080131193104 0.034423936700294366 -0.04241916648043786 -0.9418297766532522 0.2124898910591836 -0.26039339086647617 0 0 255
-0.03346491952689312 0.03406239110475614 -0.04205287913846892 -0.9418297766532522 0.2124898910591836 -0.26039339086647617 0 0 255
-0.033297764877498526 0.03481788279605849 -0.04204096208840599 -0.9418297766532522 0.2124898910591836 -0.26039339086647617 0 0 255
-0.033480598660915184 0.0344563489254111 -0.041674685477872245 -0.9418297766532522 0.2124898910591836 -0.26039339086647617 0 0 255
-0.034755045059298384 0.046986047383366134 -0.04710180365333025 -0.9737945475848119 0.07074326603314944 -0.21614710131078496 0 0 255
-0.03486625131311505 0.04661347024157189 -0.04672273440249432 -0.9737945475848119 0.07074326603314944 -0.21614710131078496 0 0 255
-0.03480755130790947 0.04738365436046735 -0.04673511673368745 -0.9737945475848119 0.07074326603314944 -0.21614710131078496 0 0 255
-0.03491875352446022 0.0470111576086175 -0.04635603936069953 -0.9737945475848119 0.07074326603314944 -0.21614710131078496 0 0 255
-0.023972929514096297 0.04637923151086866 -0.041919352552407335 -0.9330831596941809 0.19198560696693204 -0.3041337597384783 0 0 255
-0.024167371914746105 0.04601628059156608 -0.04155191693088553 -0.9330831596941809 0.19198560696693204 -0.3041337597384783 0 0 255
-0.024012847275078075 0.04678122440728105 -0.04154312519488772 -0.9330831596941809 0.19198560696693204 -0.3041337597384783 0 0 255
-0.0242072755796075 0.04641829289485511 -0.04117572056963385 -0.9330831596941809 0.19198560696693204 -0.3041337597384783 0 0 255
-0.0038170166920248327 0.051804147233536935 -0.04044837666559074 -0.975704304519207 0.06878604030270127 -0.20801343899413244 0 0 255
-0.00392923562373565 0.05141475105629219 -0.040050770270652576 -0.975704304519207 0.06878604030270127 -0.20801343899413244 0 0 255
-0.003869709980502123 0.05221883340960608 -0.040064085685194144 -0.975704304519207 0.06878604030270127 -0.20801343899413244 0 0 255
-0.003981925559599364 0.05182952213159626 -0.03966646694142601 -0.975704304519207 0.06878604030270127 -0.20801343899413244 0 0 255
-0.014130139458340685 0.06845233574222684 -0.03965345014652924 -0.9600451520204283 0.120712105786214 -0.25247156988209696 0 0 255
-0.014277385330797199 0.0680786722277204 -0.03927219147110565 -0.9600451520204283 0.120712105786214 -0.25247156988209696 0 0 255
-0.014178425097579939 0.06885677588879074 -0.03927646823262658 -0.9600451520204283 0.120712105786214 -0.25247156988209696 0 0 255
-0.014325661962183711 0.0684831683277205 -0.03889521705780337 -0.9600451520204283 0.120712105786214 -0.25247156988209696 0 0 255
0.005836057911564163 -0.04618178633230571 -0.027780142286767034 -0.9493806565337546 0.21449459703428567 -0.22949604973209578 0 0 255
0.005648343595514527 -0.04658111113049493 -0.027376826721872916 -0.9493806565337546 0.21449459703428567 -0.22949604973209578 0 0 255
0.005832194846640659 -0.045753322728141366 -0.02736370528341124 -0.9493806565337546 0.21449459703428567 -0.22949604973209578 0 0 255
0.005644482556222741 -0.04615263439361017 -0.026960385823888072 -0.9493806565337546 0.21449459703428567 -0.22949604973209578 0 0 255
-0.041898587477403104 -0.021688157283892603 -0.04005229465678563 -0.9017089046971396 0.29627691988244065 -0.3148666986755799 0 0 255
-0.04213732570208889 -0.022035834352452557 -0.03969575110176293 -0.9017089046971396 0.29627691988244065 -0.3148666986755799 0 0 255
-0.041902781799677935 -0.021292455295621515 -0.03966794335977705 -0.9017089046971396 0.29627691988244065 -0.3148666986755799 0 0 255
-0.0421415167375459 -0.021640163194940415 -0.039311438227983074 -0.9017089046971396 0.29627691988244065 -0.3148666986755799 0 0 255
-0.042857245440795166 -0.016044468799181213 -0.04166423893028472 -0.9335302809800275 0.2852117720784059 -0.21719912421841414 0 0 255
-0.04305225331635093 -0.01640444412057132 -0.041298783692707564 -0.9335302809800275 0.2852117720784059 -0.21719912421841414 0 0 255
-0.042830555671437176 -0.015659962891753407 -0.04127404443180739 -0.9335302809800275 0.2852117720784059 -0.21719912421841414 0 0 255
-0.043025571652367534 -0.01601995894663981 -0.04090858158289511 -0.9335302809800275 0.2852117720784059 -0.21719912421841414 0 0 255
-0.07668462545305271 0.000841026573113815 -0.047721342635110825 -0.9634897543825647 0.1426376640188188 -0.22658770929395028 0 0 255
-0.0768206334098549 0.0004875768200254954 -0.04736551121770488 -0.9634897543825647 0.1426376640188188 -0.22658770929395028 0 0 255
-0.07671210541748241 0.0012191252206033287 -0.047366478850681126 -0.9634897543825647 0.1426376640188188 -0.22658770929395028 0 0 255
-0.07684810791112967 0.0008657197749551704 -0.047010642771874764 -0.9634897543825647 0.1426376640188188 -0.22658770929395028 0 0 255
0.003974494293091657 -0.015300931874315568 -0.02972746004555315 -0.9356220655630938 0.2725574792572888 -0.22432960333483024 0 0 255
0.0037676358560858603 -0.015687956736015016 -0.029334935848626793 -0.9356220655630938 0.2725574792572888 -0.22432960333483024 0 0 255
0.003995524566982767 -0.01488575839358379 -0.02931074175391566 -0.9356220655630938 0.2725574792572888 -0.22432960333483024 0 0 255
0.0037886602015723136 -0.015272799446830257 -0.0289182125036263 -0.9356220655630938 0.2725574792572888 -0.22432960333483024 0 0 255
-0.02425739818184286 0.024699408247808127 -0.03641827289186055 -0.9821007442581725 0.09325989860478527 -0.1636481574591319 0 0 255
-0.02435982626149541 0.02431125638305906 -0.036024772037895815 -0.9821007442581725 0.09325989860478527 -0.1636481574591319 0 0 255
-0.024282865800658193 0.025103334718970756 -0.036035244386616976 -0.9821007442581725 0.09325989860478527 -0.1636481574591319 0 0 255
-0.024385292630045352 0.024715256158852103 -0.035641709260981244 -0.9821007442581725 0.09325989860478527 -0.1636481574591319 0 0 255
-0.03378230158340939 0.028528589893527793 -0.03915969886481563 -0.9510195560643777 0.18366691132321067 -0.24865291003345588 0 0 255
-0.03395001923659019 0.02816244875017336 -0.03878868066457991 -0.9510195560643777 0.18366691132321067 -0.24865291003345588 0 0 255
-0.03380441735509648 0.028925247449458444 -0.038782122750745135 -0.9510195560643777 0.18366691132321067 -0.24865291003345588 0 0 255
-0.033972128662316914 0.028559132213051813 -0.0384111096857131 -0.9510195560643777 0.18366691132321067 -0.24865291003345588 0 0 255
-0.00031974813669710667 0.04904806928006121 -0.03049351535081031 -0.9776520018654474 0.0317247862563693 -0.20782228269719014 0 0 255
-0.0004188855326710539 0.04865205957187222 -0.030087598578118338 -0.9776520018654474 0.0317247862563693 -0.20782228269719014 0 0 255
-0.00038761095673317536 0.049469613604602204 -0.030109920173144587 -0.9776520018654474 0.0317247862563693 -0.20782228269719014 0 0 255
-0.00048674723369190875 0.049073708866063735 -0.029703992640623227 -0.9776520018654474 0.0317247862563693 -0.20782228269719014 0 0 255
-0.012268714556348814 0.06415671067742387 -0.03504579953007975 -0.9722490448945363 0.07181471297759938 -0.2226531870456984 0 0 255
-0.012386425291903203 0.06377547714660681 -0.03465476100609221 -0.9722490448945363 0.07181471297759938 -0.2226531870456984 0 0 255
-0.012324896692609388 0.06456514787068333 -0.03466873406231454 -0.9722490448945363 0.07181471297759938 -0.2226531870456984 0 0 255
-0.012442602600652442 0.0641839956107941 -0.03427769040520916 -0.9722490448945363 0.07181471297759938 -0.2226531870456984 0 0 255
-0.03634863133904398 -0.03029504423639788 -0.032805795853369735 -0.9567180964285535 0.17496592462805516 -0.2325454991720436 0 0 255
-0.03651047540545149 -0.030673413867712274 -0.03242463451052266 -0.9567180964285535 0.17496592462805516 -0.2325454991720436 0 0 255
-0.03636810275908914 -0.02988875112971391 -0.03241999561504795 -0.9567180964285535 0.17496592462805516 -0.2325454991720436 0 0 255
-0.03652994162230294 -0.03026708912175831 -0.03203883187351053 -0.9567180964285535 0.17496592462805516 -0.2325454991720436 0 0 255
-0.04125295365555104 -0.022142853148342564 -0.03307579178329498 -0.942944097916954 0.2177175843078029 -0.25190371511106485 0 0 255
-0.04143682884931882 -0.02250956145155282 -0.03270443885285139 -0.942944097916954 0.2177175843078029 -0.25190371511106485 0 0 255
-0.04126340578389309 -0.021743717618277453 -0.03269169821760315 -0.942944097916954 0.2177175843078029 -0.25190371511106485 0 0 255
-0.04144727685931071 -0.022110416152771734 -0.03232035226027154 -0.942944097916954 0.2177175843078029 -0.25190371511106485 0 0 255
-0.013158670992516386 -0.026810681831501815 -0.025724085559979473 -0.9481029247270686 0.25782086363167983 -0.1860893505824381 0 0 255
-0.013340468817791662 -0.027197178686723847 -0.025333326515355914 -0.9481029247270686 0.25782086363167983 -0.1860893505824381 0 0 255
-0.013129441518918206 -0.026406098936651246 -0.025312469517930106 -0.9481029247270686 0.25782086363167983 -0.1860893505824381 0 0 255
-0.013311246231114127 -0.02679260352454646 -0.024921686098643654 -0.9481029247270686 0.25782086363167983 -0.1860893505824381 0 0 255
-0.04532120315611626 -0.008787043959921387 -0.030979949198812536 -0.9484139402591741 0.19128578728923762 -0.25282552383650686 0 0 255
-0.045493648677971454 -0.009152878120726793 -0.030609848664752894 -0.9484139402591741 0.19128578728923762 -0.25282552383650686 0 0 255
-0.04534161107420209 -0.008389205620515122 -0.03060239248490581 -0.9484139402591741 0.19128578728923762 -0.25282552383650686 0 0 255
-0.04551405021206306 -0.008755017544281901 -0.030232299074493228 -0.9484139402591741 0.19128578728923762 -0.25282552383650686 0 0 255
0.002740788785387638 -0.015670208470350333 -0.02017229166875463 -0.9487911224505969 0.14760084097942922 -0.27930162495248995 0 0 255
0.0026910108620534223 -0.015234082282842357 -0.019772718469630128 -0.9487911224505969 0.14760084097942922 -0.27930162495248995 0 0 255
0.002511662148922511 -0.01562971801580061 -0.01937254786570173 -0.9487911224505969 0.14760084097942922 -0.27930162495248995 0 0 255
-0.0319768069215961 -0.0020463375545092116 -0.028366390148101002 -0.9098318012721545 0.24920273045675131 -0.33181936731716927 0 0 255
-0.03220685041058535 -0.002403219601266493 -0.028003647905451325 -0.9098318012721545 0.24920273045675131 -0.33181936731716927 0 0 255
-0.03200492798896942 -0.0016396978742955204 -0.027983889388638182 -0.9098318012721545 0.24920273045675131 -0.33181936731716927 0 0 255
-0.03223495774631524 -0.001996589915023758 -0.027621192303119754 -0.9098318012721545 0.24920273045675131 -0.33181936731716927 0 0 255
-0.04717355339600188 0.01057967759226186 -0.03219458010606985 -0.9243273731016091 0.06595612915291064 -0.37585728190663475 0 0 255
-0.04734783697769451 0.01021897909799628 -0.03182926908144047 -0.9243273731016091 0.06595612915291064 -0.37585728190663475 0 0 255
-0.0472860536569098 0.010997200671594903 -0.03184464601375729 -0.9243273731016091 0.06595612915291064 -0.37585728190663475 0 0 255
-0.04746030496904413 0.01063657772662778 -0.031479401090539254 -0.9243273731016091 0.06595612915291064 -0.37585728190663475 0 0 255
-0.021914592445323677 0.010868374020401889 -0.025991557332107777 -0.9347800530865749 0.22686885990469416 -0.2733436898064498 0 0 255
-0.022114114690170106 0.010498176397208445 -0.02561648702414214 -0.9347800530865749 0.22686885990469416 -0.2733436898064498 0 0 255
-0.021929884731493376 0.011275187084794469 -0.025601615496369745 -0.9347800530865749 0.22686885990469416 -0.2733436898064498 0 0 255
-0.02212940078796144 0.010904993953096964 -0.025226562623568247 -0.9347800530865749 0.22686885990469416 -0.2733436898064498 0 0 255
-0.007446589386053359 0.00926295458859934 -0.021531169514336534 -0.9545621667160549 0.14944531135720202 -0.2578316675424094 0 0 255
-0.007613541124857015 0.008874906893956078 -0.021137990872052884 -0.9545621667160549 0.14944531135720202 -0.2578316675424094 0 0 255
-0.007486528165133843 0.009685084692345663 -0.021138628856908953 -0.9545621667160549 0.14944531135720202 -0.2578316675424094 0 0 255
-0.007653470245396421 0.009297081237544594 -0.02074546033068647 -0.9545621667160549 0.14944531135720202 -0.2578316675424094 0 0 255
-0.03448013829669844 0.027778355354950775 -0.03253761845696023 -0.9660003663324918 0.11266228775112247 -0.23270260240095073 0 0 255
-0.03461536318733999 0.02740391703111781 -0.032157553022367925 -0.9660003663324918 0.11266228775112247 -0.23270260240095073 0 0 255
-0.034523020183984954 0.028180534594530376 -0.03216489227706372 -0.9660003663324918 0.11266228775112247 -0.23270260240095073 0 0 255
-0.034658238329254465 0.027806157141276197 -0.03178482537370063 -0.9660003663324918 0.11266228775112247 -0.23270260240095073 0 0 255
-0.0348643530170456 0.02826655040309496 -0.0326490840949957 -0.9420289151218706 0.15575342506004233 -0.29719083710030014 0 0 255
-0.035041113179486105 0.027902133529885666 -0.03227977927732569 -0.9420289151218706 0.15575342506004233 -0.29719083710030014 0 0 255
-0.034914546885363607 0.028670084521674535 -0.03227849428311145 -0.9420289151218706 0.15575342506004233 -0.29719083710030014 0 0 255
-0.03509129219002344 0.028305704643339764 -0.03190921717282525 -0.9420289151218706 0.15575342506004233 -0.29719083710030014 0 0 255
-0.024097799045662116 0.03670260636860065 -0.0323843781315492 -0.9573080773203363 0.16509783734626285 -0.23728453215670858 0 0 255
-0.024256150716687075 0.03632924485887684 -0.03200529671773764 -0.9573080773203363 0.16509783734626285 -0.23728453215670858 0 0 255
-0.024123071510604388 0.03710485495820491 -0.03200254158190639 -0.9573080773203363 0.16509783734626285 -0.23728453215670858 0 0 255
-0.024281417067549937 0.03673152903898157 -0.03162346007176734 -0.9573080773203363 0.16509783734626285 -0.23728453215670858 0 0 255
-0.008763502371036347 0.06798574948060977 -0.03030119093373025 -0.9702030453133894 0.054251834118471204 -0.2361414604837689 0 0 255
-0.008880771588146763 0.06760279496014768 -0.02990736358019168 -0.9702030453133894 0.054251834118471204 -0.2361414604837689 0 0 255
-0.00883192421274559 0.06839785983741321 -0.02992539575686326 -0.9702030453133894 0.054251834118471204 -0.2361414604837689 0 0 255
-0.008949187914607193 0.06801499504045605 -0.02953157044975295 -0.9702030453133894 0.054251834118471204 -0.2361414604837689 0 0 255
-0.05366364482697744 -0.025840297435424306 -0.026019005027454148 -0.8997790087287304 0.2876815754829719 -0.3280808537217286 0 0 255
-0.053901232819468126 -0.026183180491208907 -0.025668068514797415 -0.8997790087287304 0.2876815754829719 -0.3280808537217286 0 0 255
-0.05367545767747245 -0.02544610722246342 -0.025640957314501153 -0.8997790087287304 0.2876815754829719 -0.3280808537217286 0 0 255
-0.053913038572113714 -0.025789017766183128 -0.025290064371190954 -0.8997790087287304 0.2876815754829719 -0.3280808537217286 0 0 255
-0.05435333740219889 -0.022205761808712254 -0.03070153418929253 -0.930590872299848 0.20879000571995593 -0.3006781699819072 0 0 255
-0.05454947779659297 -0.022560752228751257 -0.030340989195658752 -0.930590872299848 0.20879000571995593 -0.3006781699819072 0 0 255
-0.05438398306256231 -0.021807141871530683 -0.030329886221697563 -0.930590872299848 0.20879000571995593 -0.3006781699819072 0 0 255
-0.05458011152289066 -0.022162121029202772 -0.029969370343123816 -0.930590872299848 0.20879000571995593 -0.3006781699819072 0 0 255
-0.06083658920851093 -0.014587585066461378 -0.03066948510809696 -0.9525544727029583 0.17934477259058162 -0.24591752495099128 0 0 255
-0.060998596990844145 -0.014948326973062281 -0.030305037464567197 -0.9525544727029583 0.17934477259058162 -0.24591752495099128 0 0 255
-0.06085834764574971 -0.014196918814806336 -0.03030029610137236 -0.9525544727029583 0.17934477259058162 -0.24591752495099128 0 0 255
-0.06102034921437349 -0.014557632974992532 -0.029935852291332596 -0.9525544727029583 0.17934477259058162 -0.24591752495099128 0 0 255
-0.043283753011057524 -0.008646340988538101 -0.028485616346447924 -0.9421252180428163 0.24698394797368453 -0.22671348211147044 0 0 255
-0.043467883834802545 -0.009010289337063354 -0.02811693561465565 -0.9421252180428163 0.24698394797368453 -0.22671348211147044 0 0 255
-0.043274440481844645 -0.008255828187392955 -0.028098886700159198 -0.9421252180428163 0.24698394797368453 -0.22671348211147044 0 0 255
-0.04345857318543728 -0.008619779749349465 -0.027730201657261394 -0.9421252180428163 0.24698394797368453 -0.22671348211147044 0 0 255
-0.014781681275485903 -0.01667073849912834 -0.021483257656518255 -0.9275890612056192 0.24798011028126438 -0.27943585746387295 0 0 255
-0.01499640825504056 -0.01704534537256297 -0.021102907959959 -0.9275890612056192 0.24798011028126438 -0.27943585746387295 0 0 255
-0.014791299519839485 -0.016256078093225296 -0.021083347235394415 -0.9275890612056192 0.24798011028126438 -0.27943585746387295 0 0 255
-0.01500602176798127 -0.016630691170969214 -0.020703018750687058 -0.9275890612056192 0.24798011028126438 -0.27943585746387295 0 0 255
0.0631302918273964 -0.029804321320865468 0.00027884878572699556 -0.8735048721113613 0.33319476691430705 -0.354923210988849 0 0 255
0.06281319556915027 -0.030202945356520863 0.0006850371650612905 -0.8735048721113613 0.33319476691430705 -0.354923210988849 0 0 255
-0.023894882299590525 -0.0007769320913721678 -0.019031179445240437 -0.9551617051570921 0.1370803060565675 -0.2624406727106794 0 0 255
-0.02405604891697183 -0.001159156725749927 -0.018644255001858137 -0.9551617051570921 0.1370803060565675 -0.2624406727106794 0 0 255
-0.023940310118040264 -0.00035992469932051574 -0.01864802841752919 -0.9551617051570921 0.1370803060565675 -0.2624406727106794 0 0 255
-0.024101466212039846 -0.0007420997172366828 -0.018261116358246954 -0.9551617051570921 0.1370803060565675 -0.2624406727106794 0 0 255
-0.02356396842133479 0.00796909022330744 -0.025055946189305067 -0.9725912626201139 0.02653290859002879 -0.23100268534535648 0 0 255
-0.023669486881102264 0.0075747856099866034 -0.02465697124399094 -0.9725912626201139 0.02653290859002879 -0.23100268534535648 0 0 255
-0.0236411503221437 0.008391706202892854 -0.02468244545105544 -0.9725912626201139 0.02653290859002879 -0.23100268534535648 0 0 255
-0.02374666553499455 0.007997509898056226 -0.024283471735958705 -0.9725912626201139 0.02653290859002879 -0.23100268534535648 0 0 255
0.0009642503733373053 0.018496874039447185 -0.013033742052728337 -0.9278526159073378 0.25026988675884404 -0.27650408122779235 0 0 255
0.0007468776891523254 0.018116281403546874 -0.012648796784336364 -0.9278526159073378 0.25026988675884404 -0.27650408122779235 0 0 255
0.0009563732281313575 0.01891545105862453 -0.012628445854288989 -0.9278526159073378 0.25026988675884404 -0.27650408122779235 0 0 255
0.000739004585301184 0.018534851204506805 -0.012243520680660328 -0.9278526159073378 0.25026988675884404 -0.27650408122779235 0 0 255
-0.01646779372350493 0.03661709081042393 -0.024432770591693798 -0.956954115707475 0.12938213891857145 -0.25980585551403584 0 0 255
-0.016623841348847868 0.03623763211342501 -0.024046962353187887 -0.956954115707475 0.12938213891857145 -0.25980585551403584 0 0 255
-0.016515522468307453 0.03702955202457443 -0.02405156543106325 -0.956954115707475 0.12938213891857145 -0.25980585551403584 0 0 255
-0.01667155994929359 0.03665014607081897 -0.023665768291808012 -0.956954115707475 0.12938213891857145 -0.25980585551403584 0 0 255
0.023408656548197404 0.03416655584381619 -0.009663248246601419 -0.9593811721169957 0.14616721520040124 -0.2412942431720637 0 0 255
0.02324392231034611 0.0337632581731571 -0.009252571110346844 -0.9593811721169957 0.14616721520040124 -0.2412942431720637 0 0 255
0.023372171289437693 0.034601648836331315 -0.0092546201745555 -0.9593811721169957 0.14616721520040124 -0.2412942431720637 0 0 255
0.023207444909362107 0.034198399151936364 -0.008843945212342025 -0.9593811721169957 0.14616721520040124 -0.2412942431720637 0 0 255
-0.005599258526719331 0.041732993449129466 -0.019863067116303403 -0.9676917155314348 0.07748054424569513 -0.23993646858120493 0 0 255
-0.005729489200172244 0.04134245988949892 -0.019463943166416302 -0.9676917155314348 0.07748054424569513 -0.23993646858120493 0 0 255
-0.005660663752029671 0.04215374197320626 -0.01947954412372401 -0.9676917155314348 0.07748054424569513 -0.23993646858120493 0 0 255
-0.005790887191414962 0.0417632889208398 -0.01908042335218134 -0.9676917155314348 0.07748054424569513 -0.23993646858120493 0 0 255
-0.005125912863438442 0.052324551265480565 -0.019342856408676015 -0.9419352457365116 0.1751627618783955 -0.2864890917477144 0 0 255
-0.005312716861243905 0.05194669675020501 -0.018959696168877938 -0.9419352457365116 0.1751627618783955 -0.2864890917477144 0 0 255
-0.005166707414651639 0.05273924627034675 -0.018955180398627133 -0.9419352457365116 0.1751627618783955 -0.2864890917477144 0 0 255
-0.005353498833008341 0.05236142099671936 -0.01857204363957772 -0.9419352457365116 0.1751627618783955 -0.2864890917477144 0 0 255
-0.02848212032974562 -0.034477730389784245 -0.011732529434013761 -0.9304184245171156 0.16926667638900156 -0.32506975802634935 0 0 255
-0.028682882202542392 -0.034852055460446466 -0.011352820827651655 -0.9304184245171156 0.16926667638900156 -0.32506975802634935 0 0 255
-0.028538218259358372 -0.03405108456485452 -0.0113498070644356 -0.9304184245171156 0.16926667638900156 -0.32506975802634935 0 0 255
-0.02873895994247755 -0.03442537969366262 -0.010970140654216282 -0.9304184245171156 0.16926667638900156 -0.32506975802634935 0 0 255
-0.045767865189790424 -0.017593975041584928 -0.018713958166983055 -0.9093758580947167 0.28244753368068104 -0.3053832664574112 0 0 255
-0.045997007927012 -0.017945191816420403 -0.018356451474772814 -0.9093758580947167 0.28244753368068104 -0.3053832664574112 0 0 255
-0.04577365306816805 -0.017197555662025604 -0.018330076514639165 -0.9093758580947167 0.28244753368068104 -0.3053832664574112 0 0 255
-0.04600279195547474 -0.017548796105035167 -0.017972603177357244 -0.9093758580947167 0.28244753368068104 -0.3053832664574112 0 0 255
-0.03892856786245652 -0.010925447532190866 -0.022059724456141405 -0.9501449213485682 0.20107089092732364 -0.2383172785536445 0 0 255
-0.03910139606416474 -0.011296785594070616 -0.021683979299412195 -0.9501449213485682 0.20107089092732364 -0.2383172785536445 0 0 255
-0.038940313216107636 -0.010524912107915313 -0.021674960903601354 -0.9501449213485682 0.20107089092732364 -0.2383172785536445 0 0 255
-0.039113137422562894 -0.010896231807451445 -0.021299216182998695 -0.9501449213485682 0.20107089092732364 -0.2383172785536445 0 0 255
0.02647014855995422 -0.028194234818907732 -0.004065759041813333 -0.9313924633578274 0.2274068330695577 -0.284243225906111 0 0 255
0.026247583660331086 -0.0285962092530008 -0.0036580675771684806 -0.9313924633578274 0.2274068330695577 -0.284243225906111 0 0 255
0.02644956987390301 -0.027748478768941293 -0.003641703888505085 -0.9313924633578274 0.2274068330695577 -0.284243225906111 0 0 255
0.02622701346310058 -0.028150449256271 -0.00323403708197742 -0.9313924633578274 0.2274068330695577 -0.284243225906111 0 0 255
-0.02712939738880149 0.009538292183718627 -0.018247607407990918 -0.8816794419105275 0.3161056612982471 -0.35031210742356406 0 0 255
-0.02739619391301734 0.009187414384474568 -0.01789273942262852 -0.8816794419105275 0.3161056612982471 -0.35031210742356406 0 0 255
-0.027139359584856415 0.009942120635286253 -0.017858137788470174 -0.8816794419105275 0.3161056612982471 -0.35031210742356406 0 0 255
-0.027406149147068015 0.0095911991829577 -0.017503326715908804 -0.8816794419105275 0.3161056612982471 -0.35031210742356406 0 0 255
-0.004814164771383689 0.011738269326652402 -0.009159277067637986 -0.9523250734406634 0.20344921327242105 -0.2273441710602405 0 0 255
-0.0049912150499303864 0.01134980214958528 -0.00876526618297152 -0.9523250734406634 0.20344921327242105 -0.2273441710602405 0 0 255
-0.004821475956696852 0.01215507686656176 -0.00875565206708058 -0.9523250734406634 0.20344921327242105 -0.2273441710602405 0 0 255
-0.004998523496706708 0.011766628028503388 -0.008361636242416301 -0.9523250734406634 0.20344921327242105 -0.2273441710602405 0 0 255
9.464506730522126e-05 0.031299911168713 -0.009988368464917477 -0.9249614052095317 0.22133902339014674 -0.30895863088365827 0 0 255
-0.00012376452973522634 0.030921105576187186 -0.009605870693136828 -0.9249614052095317 0.22133902339014674 -0.30895863088365827 0 0 255
6.295531987648983e-05 0.03172144029767007 -0.00959151067623698 -0.9249614052095317 0.22133902339014674 -0.30895863088365827 0 0 255
-0.00015544125281152787 0.03134264008076315 -0.009209048045695459 -0.9249614052095317 0.22133902339014674 -0.30895863088365827 0 0 255
-0.07362683986626795 0.051603488785440424 -0.030992896014700205 -0.955309851474294 0.0781150790328973 -0.28509844282957136 0 0 255
-0.07369694804880406 0.05198438024151107 -0.030653615299310807 -0.955309851474294 0.0781150790328973 -0.28509844282957136 0 0 255
0.011977398261535488 0.0381354570673389 -0.0075915160887393834 -0.9614866768987371 0.09696987122198533 -0.2571773983487175 0 0 255
0.011828034932543419 0.03773613763680371 -0.007183669607045334 -0.9614866768987371 0.09696987122198533 -0.2571773983487175 0 0 255
0.01191550853013329 0.03856868711425457 -0.007196783057412101 -0.9614866768987371 0.09696987122198533 -0.2571773983487175 0 0 255
0.01176615547265708 0.03816943963763 -0.0067889478463989406 -0.9614866768987371 0.09696987122198533 -0.2571773983487175 0 0 255
0.003179173176180272 0.04827809126652967 -0.012870343602299494 -0.964601298410231 0.06884726540083679 -0.2545670621901492 0 0 255
0.003044482178676089 0.047884033100209514 -0.01246654712119813 -0.964601298410231 0.06884726540083679 -0.2545670621901492 0 0 255
0.0031079281685265636 0.04870493692942717 -0.012484943453974787 -0.964601298410231 0.06884726540083679 -0.2545670621901492 0 0 255
0.002973246094978399 0.04831096377179789 -0.012081157796911782 -0.964601298410231 0.06884726540083679 -0.2545670621901492 0 0 255
-0.052386538710075814 -0.022956186876957593 -0.0166306839356829 -0.9050493797973567 0.2928751078095904 -0.3083987538138588 0 0 255
-0.052619103267046 -0.02330280766805584 -0.016277356287178454 -0.9050493797973567 0.2928751078095904 -0.3083987538138588 0 0 255
-0.05238954714835092 -0.022563276675396857 -0.016248722590573764 -0.9050493797973567 0.2928751078095904 -0.3083987538138588 0 0 255
-0.05262210904367426 -0.022909925977816298 -0.015895429829298965 -0.9050493797973567 0.2928751078095904 -0.3083987538138588 0 0 255
-0.06241934898773638 -0.015792770990937385 -0.01691203695417247 -0.9006533080931081 0.22992358325893475 -0.3687258663049184 0 0 255
-0.06264831510248059 -0.016133503382425238 -0.016565230049672336 -0.9006533080931081 0.22992358325893475 -0.3687258663049184 0 0 255
-0.06246574771274094 -0.015392938681526122 -0.0165493825958299 -0.9006533080931081 0.22992358325893475 -0.3687258663049184 0 0 255
-0.06269469050674481 -0.01573367504289659 -0.016202635130261406 -0.9006533080931081 0.22992358325893475 -0.3687258663049184 0 0 255
-0.020091037076278462 -0.009725424434701091 -0.0055645002989463815 -0.9293868186460189 0.1715174531074707 -0.32683620455292056 0 0 255
-0.020294486680445645 -0.010101587691329766 -0.005183377232080122 -0.9293868186460189 0.1715174531074707 -0.32683620455292056 0 0 255
-0.020147521200911955 -0.009299196814489902 -0.005180206652740271 -0.9293868186460189 0.1715174531074707 -0.32683620455292056 0 0 255
-0.020350950339887763 -0.009675331273252943 -0.004799126667828502 -0.9293868186460189 0.1715174531074707 -0.32683620455292056 0 0 255
-0.00451068285858458 -0.01156246620984104 -0.002916765894599188 -0.9234081134316903 0.24128454884419967 -0.29849492883058754 0 0 255
-0.004734737971424929 -0.011942975968377428 -0.0025312210410090297 -0.9234081134316903 0.24128454884419967 -0.29849492883058754 0 0 255
-0.060287287985281046 0.014882756442283263 -0.02086771761664956 -0.8756891228930597 0.37957281597457143 -0.29848456814367796 0 0 255
-0.06025570680533532 0.01525547330218266 -0.020486398431492317 -0.8756891228930597 0.37957281597457143 -0.29848456814367796 0 0 255
-0.060513618983755235 0.01492380561818614 -0.02015151059074613 -0.8756891228930597 0.37957281597457143 -0.29848456814367796 0 0 255
-0.07284383374588554 0.022349110120557097 -0.021924237247094844 -0.9227569433058075 0.18777716163816055 -0.33654028161282407 0 0 255
-0.07303831880214012 0.022009382614124398 -0.02158053583760694 -0.9227569433058075 0.18777716163816055 -0.33654028161282407 0 0 255
-0.07289308634250263 0.022734384132711893 -0.021574223170339468 -0.9227569433058075 0.18777716163816055 -0.33654028161282407 0 0 255
-0.073087551939858 0.022394674747258245 -0.021230565004199217 -0.9227569433058075 0.18777716163816055 -0.33654028161282407 0 0 255
-0.02067266806895618 0.017153535444477917 -0.005723830262519769 -0.9107824684810274 0.22527928365292052 -0.3460123400464691 0 0 255
-0.020903159922658954 0.016788006889742926 -0.005355109515457188 -0.9107824684810274 0.22527928365292052 -0.3460123400464691 0 0 255
-0.02071563871798615 0.01756962191353706 -0.005339819173593774 -0.9107824684810274 0.22527928365292052 -0.3460123400464691 0 0 255
-0.020946110732303846 0.017204093968268955 -0.00497115025145696 -0.9107824684810274 0.22527928365292052 -0.3460123400464691 0 0 255
-0.0013008637526452649 0.022717293168707936 -0.007012238963287204 -0.9777282071714429 -0.0166861406998827 -0.20921072059017373 0 0 255
-0.0013839323616948174 0.022306860899639375 -0.00659128991947508 -0.9777282071714429 -0.0166861406998827 -0.20921072059017373 0 0 255
-0.0013899530654902237 0.02315327502595215 -0.006630660623093823 -0.9777282071714429 -0.0166861406998827 -0.20921072059017373 0 0 255
-0.0014730253293342432 0.02274297822346215 -0.0062097053034018 -0.9777282071714429 -0.0166861406998827 -0.20921072059017373 0 0 255
0.007944602317152494 0.03339649148929967 -0.004587570126485446 -0.9463529018075785 0.15039025827931154 -0.28600516683280003 0 0 255
0.00776218222225189 0.03300490765991334 -0.0041898731401779354 -0.9463529018075785 0.15039025827931154 -0.28600516683280003 0 0 255
0.007893290371708328 0.03382688268826056 -0.004191472904551297 -0.9463529018075785 0.15039025827931154 -0.28600516683280003 0 0 255
0.007710884397192697 0.03343534169080762 -0.0037938001183721037 -0.9463529018075785 0.15039025827931154 -0.28600516683280003 0 0 255
0.009834355711663745 0.03895172192828395 -0.004329261740767115 -0.9359986914633661 0.2056851281772018 -0.2856572730136489 0 0 255
0.009629661121400568 0.0385644262187284 -0.003937418397194137 -0.9359986914633661 0.2056851281772018 -0.2856572730136489 0 0 255
0.009805078235179732 0.03937753520652358 -0.003926726432704683 -0.9359986914633661 0.2056851281772018 -0.2856572730136489 0 0 255
0.009600394185883376 0.038990254253613583 -0.003534907002784124 -0.9359986914633661 0.2056851281772018 -0.2856572730136489 0 0 255
0.0068892106237671835 -0.03887739775751374 0.005405233885171834 -0.907421643391848 0.26147769055262055 -0.3289610591655275 0 0 255
0.006637458284270259 -0.03926064604343056 0.0057950509816070556 -0.907421643391848 0.26147769055262055 -0.3289610591655275 0 0 255
0.006865476849686858 -0.038438344207170946 0.00581968795155334 -0.907421643391848 0.26147769055262055 -0.3289610591655275 0 0 255
0.006613736815553939 -0.038821609489823605 0.006209457594284776 -0.907421643391848 0.26147769055262055 -0.3289610591655275 0 0 255
-0.0565728600128621 -0.014490270167938205 -0.013775561973803238 -0.9151286629365021 0.29781615342003714 -0.27174449218731717 0 0 255
-0.05679120641999008 -0.01483848104088907 -0.013421875935580016 -0.9151286629365021 0.29781615342003714 -0.27174449218731717 0 0 255
-0.05656129182871328 -0.014105225153403608 -0.013392532137976101 -0.9151286629365021 0.29781615342003714 -0.27174449218731717 0 0 255
-0.0567796420853392 -0.014453464406258443 -0.013038864238879788 -0.9151286629365021 0.29781615342003714 -0.27174449218731717 0 0 255
0.005485518311490745 -0.0265170023529437 0.007508632004109603 -0.8829494225450876 0.2824102688810206 -0.3750263420852542 0 0 255
0.005205346321410287 -0.02689007827530894 0.007887318003917176 -0.8829494225450876 0.2824102688810206 -0.3750263420852542 0 0 255
0.005452161183700788 -0.02607785446380599 0.007917863337877945 -0.8829494225450876 0.2824102688810206 -0.3750263420852542 0 0 255
0.005172009103305453 -0.026450962302389594 0.008296478428765769 -0.8829494225450876 0.2824102688810206 -0.3750263420852542 0 0 255
0.005799765413868285 -0.022291780847990175 0.010912832392765581 -0.9562486708325025 0.15577435395608286 -0.24763446888637553 0 0 255
0.005627282436245662 -0.02269733245994715 0.01132376903741783 -0.9562486708325025 0.15577435395608286 -0.24763446888637553 0 0 255
0.005765451631800866 -0.02185254173706566 0.011321639364125391 -0.9562486708325025 0.15577435395608286 -0.24763446888637553 0 0 255
0.005592977131264887 -0.022258049934245516 0.011732570584274404 -0.9562486708325025 0.15577435395608286 -0.24763446888637553 0 0 255
0.003586858924874703 -0.013265934415054706 0.009393056804036709 -0.9231122644753056 0.22800353978459376 -0.3096419432521518 0 0 255
0.00336000433594541 -0.013652735210463965 0.009784542212877112 -0.9231122644753056 0.22800353978459376 -0.3096419432521518 0 0 255
0.003557470060150003 -0.012831379318116565 0.009800654432685033 -0.9231122644753056 0.22800353978459376 -0.3096419432521518 0 0 255
0.0033306281666102278 -0.013218178225301622 0.010192103384100579 -0.9231122644753056 0.22800353978459376 -0.3096419432521518 0 0 255
0.02299578663558366 -0.007926752851451627 0.013796688845676752 -0.9407096860669115 0.17673068263225383 -0.28953678929668025 0 0 255
0.022793248763438523 -0.008332029368531918 0.01420736046669166 -0.9407096860669115 0.17673068263225383 -0.28953678929668025 0 0 255
0.02295257329075212 -0.0074780599637462725 0.014210967848625244 -0.9407096860669115 0.17673068263225383 -0.28953678929668025 0 0 255
0.02275004941065506 -0.007883305979445601 0.014621612627022884 -0.9407096860669115 0.17673068263225383 -0.28953678929668025 0 0 255
-0.028777620765676526 0.023947856213981933 -0.00377471232141538 -0.9578557061314943 0.1708808160412192 -0.23089433284605188 0 0 255
-0.02893735939316855 0.023570770395136678 -0.003391117703482119 -0.9578557061314943 0.1708808160412192 -0.23089433284605188 0 0 255
-0.028798180289498487 0.024352923604402076 -0.0033896387583745025 -0.9578557061314943 0.1708808160412192 -0.23089433284605188 0 0 255
-0.028957913697815085 0.02397587118270856 -0.0030060410753358358 -0.9578557061314943 0.1708808160412192 -0.23089433284605188 0 0 255
-0.04163963915295227 -0.02993987329002247 0.001370370910471097 -0.8562397323304786 0.3531832038814144 -0.3769816245849254 0 0 255
-0.04164514581541662 -0.029536313492056432 0.0017609617403555738 -0.8562397323304786 0.3531832038814144 -0.3769816245849254 0 0 255
-0.04193608037480018 -0.029873903342967467 0.002105484273125263 -0.8562397323304786 0.3531832038814144 -0.3769816245849254 0 0 255
-0.060651837317037605 -0.017449875346612215 -0.008419780411262581 -0.9173540371030663 0.1236968538346269 -0.37836577403634325 0 0 255
-0.06084760628548652 -0.017803862643549176 -0.008060862274537645 -0.9173540371030663 0.1236968538346269 -0.37836577403634325 0 0 255
-0.060740716606909384 -0.017033866822429425 -0.008068287939917138 -0.9173540371030663 0.1236968538346269 -0.37836577403634325 0 0 255
-0.060936452615584724 -0.017387807935772673 -0.007709434616179664 -0.9173540371030663 0.1236968538346269 -0.37836577403634325 0 0 255
-0.04761125880899947 -0.01801076644793878 -0.002613687022432587 -0.8581108338929717 0.3989677268122551 -0.3232190429380215 0 0 255
-0.04789547179506687 -0.018345954352886967 -0.0022728745350740626 -0.8581108338929717 0.3989677268122551 -0.3232190429380215 0 0 255
-0.04758079857498665 -0.017624396347601948 -0.0022176368928774337 -0.8581108338929717 0.3989677268122551 -0.3232190429380215 0 0 255
-0.0478650295912435 -0.01795966319809285 -0.0018768739843512405 -0.8581108338929717 0.3989677268122551 -0.3232190429380215 0 0 255
-0.030608053169107863 -0.017412286583472894 0.0006273636592592502 -0.9101971051549796 0.26557389362609624 -0.3178234365048775 0 0 255
-0.030842042538367587 -0.017774624519833665 0.0009947026801113146 -0.9101971051549796 0.26557389362609624 -0.3178234365048775 0 0 255
-0.030624804198416622 -0.01700113522691006 0.0010188949018438143 -0.9101971051549796 0.26557389362609624 -0.3178234365048775 0 0 255
-0.030858784756965796 -0.017363490230563494 0.0013861944287214961 -0.9101971051549796 0.26557389362609624 -0.3178234365048775 0 0 255
0.050708472802812155 -0.03909365302673548 -0.05178264453041785 -0.9259971537974049 0.21105458843420144 -0.313025928414844 0 0 255
0.05048156954170585 -0.03944206833857469 -0.05134633203573443 -0.9259971537974049 0.21105458843420144 -0.313025928414844 0 0 255
0.0507028513768602 -0.03858806542993623 -0.05142512779958843 -0.9259971537974049 0.21105458843420144 -0.313025928414844 0 0 255
