ply
format ascii 1.0
element vertex 364
property float x
property float y
property float z
property float nx
property float ny
property float nz
property uchar diffuse_red
property uchar diffuse_green
property uchar diffuse_blue
end_header
0.009902405822016791 0.03669807350595966 -0.003521419728424846 -0.5920030729200642 0.29283362993055456 0.7508533990299946 255 0 0
0.06201840551686344 0.01653654718943537 -0.07801164254061721 -0.5960580015222376 0.25406326100712256 0.7616867586007668 255 0 0
0.024456218208692537 -0.05513622194529599 -0.008058186525309208 -0.622405032856975 0.25617973120319526 0.7395836128491263 255 0 0
0.09913692793252726 -0.09082183166570634 -0.09611829240789416 -0.6181018811429048 0.3369245112291501 0.710233720869828 255 0 0
0.08186856438284917 -0.062287717739478554 -0.08095354580885084 -0.621092862469153 0.3173141775573933 0.7166277757043393 255 0 0
0.055170726149845195 -0.03133355442571242 -0.0513829099174784 -0.6426856748042922 0.24012363625555289 0.7275271559967795 255 0 0
0.003212070718961124 0.0065115939436189985 0.011750207782725397 -0.6462566715103117 0.18896571102264673 0.7393539575779104 255 0 0
0.003570217241491924 0.007546003719531902 0.010818910454275743 -0.588004652507024 0.32455347364743764 0.7408883663369779 255 0 0
0.006452526582910345 0.019392439750468227 0.006095054536947697 -0.631079209625219 0.2534485600669028 0.7331458644627428 255 0 0
0.01220451703856995 0.029582444771192734 0.003548003308496639 -0.6011733062790903 0.29693142776421494 0.7419045646330611 255 0 0
0.02855238716278674 0.02867252955936142 -0.021006239789150616 -0.6621673304527834 0.1782795709131483 0.7278398320207943 255 0 0
0.03415989216149362 0.032146457015077456 -0.03146141373522582 -0.6185343445889264 0.21151405767002154 0.756754298284397 255 0 0
-0.055120126163120675 -0.024320339111333966 -0.049247931402139455 -0.8614287796523835 0.23308667757683485 0.4512328205292674 255 0 0
-0.06071317292959649 -0.010337181960890729 -0.04978632861457083 -0.7699226599105822 0.33036429727981975 0.5459656846716878 255 0 0
-0.07522815088780621 0.006613411182164519 -0.03765416339371008 -0.770417588008712 0.31506671251035206 0.5542469727068952 255 0 0
-0.052980282198422546 0.023505606809967022 -0.05258987210095867 -0.8069751606729829 0.26412230639943524 0.5282333739163555 255 0 0
-0.06087374968549503 0.04106541172238781 -0.0475433485545515 -0.7888617394577447 0.24013011543005006 0.5657160804531299 255 0 0
-0.08790334140671291 -0.01210687953798592 -0.01888242192184353 -0.7669066324043383 0.39949690391105885 0.5022513722626504 255 0 0
-0.09855839004455996 -0.003244212805914082 -0.010916416700947285 -0.8085691284765765 0.21586809742092616 0.5473727514139693 255 0 0
-0.11582532345916796 0.013285130754964958 -0.004397212415088614 -0.8107237936873137 0.26970100621453685 0.5196039815052578 255 0 0
-0.055145569633942015 7.381026958036552e-05 -0.04326023212018265 -0.7293899424609253 0.42091349393702554 0.5392792805760052 255 0 0
-0.05075959373782302 0.006787518681485277 -0.04792358457014001 -0.7867379704155252 0.30162258974048584 0.5385788514829588 255 0 0
-0.05016146953135603 0.007616749301302711 -0.04864188336447661 -0.8117947971381235 0.207123322141494 0.5459753994133286 255 0 0
-0.05173700696198247 0.024718948561256754 -0.05211150966974609 -0.8133670125867732 0.16324966553479947 0.5583759034364252 255 0 0
-0.049389381072935556 0.02870832374091209 -0.04919339270571932 -0.8065146801206654 0.19693655301950383 0.5574496074396832 255 0 0
-0.07286604292261717 0.04496400901879136 -0.037777900294413636 -0.8089893708340079 0.2759311576559847 0.5190358312411814 255 0 0
-0.045254527201816774 0.03755116544205733 -0.057628679252716364 -0.8112237423730911 0.19749685794836266 0.5503735376185168 255 0 0
0.013840928587717682 -0.07076615357346322 -0.07989684379408485 -0.7960122425203268 0.3622656333428849 0.4849001141023158 255 0 0
-0.04571024740717877 -0.027175509497435885 -0.04028827045909211 -0.8232054387542648 0.27087534917670764 0.4989582656032416 255 0 0
-0.05517933839321676 -0.017296924472605474 -0.03456073501035423 -0.7215375261021638 0.44472904082348036 0.5306596636966074 255 0 0
-0.04278444138659909 -0.015299863101923827 -0.04461252295905721 -0.7887595308606768 0.30323706267632417 0.5347014927002541 255 0 0
-0.05867266790101655 0.010034496205544391 -0.03928337769664414 -0.7407940713748082 0.33156956560215706 0.5841966851860189 255 0 0
-0.04483639259490646 0.020472364539870058 -0.04679356318932876 -0.7908437343492368 0.2667005373849658 0.5508511697356413 255 0 0
-0.051043641942526974 0.034071628506085305 -0.04468466257468168 -0.7912849581807828 0.25004954159015025 0.5579814886780676 255 0 0
-0.0344472470825411 -0.04319467854109332 -0.04246504234241655 -0.7991536604023756 0.3213150649384538 0.5080453287936834 255 0 0
-0.05699033198696957 -0.023240816205892467 -0.025192158435331513 -0.8079623279572699 0.3177232728764856 0.49623462039092303 255 0 0
-0.04644155361993174 -0.017205204430663507 -0.033040037049563487 -0.7867529568735498 0.3399226575933754 0.5152401107303108 255 0 0
-0.04567984628654731 -0.016630223812014927 -0.03434244693020988 -0.7825945898851774 0.3156880220322376 0.5365508183087828 255 0 0
-0.07259990196918747 0.005509652441815643 -0.01947046511890821 -0.8356886981939559 0.20181342914888875 0.5107795410214253 255 0 0
-0.04355742260730222 0.0008330787777600657 -0.041465022487748915 -0.7670249064341088 0.3687115032276952 0.5250948679022867 255 0 0
-0.0426640366796619 0.018848706808046095 -0.04394225788584516 -0.8017796710300614 0.027501855714761738 0.5969866054235814 255 0 0
-0.04917592349293287 0.027399372489127105 -0.0393167500245018 -0.8319551609699118 0.21841230165905026 0.5100457593388305 255 0 0
-0.04301468705347378 0.030563228151615274 -0.0419090762739745 -0.7835113457399249 0.29881305572616884 0.5448125630199816 255 0 0
-0.03445193255527601 0.0328894310918596 -0.04681166472137338 -0.8150148466110895 0.2769224930346311 0.5089840200389271 255 0 0
-0.029250098223838616 0.048850529602911474 -0.05171637040474791 -0.8009063885953217 0.22180763820687496 0.5561927079172179 255 0 0
-0.07523957816525062 -0.017427642754807376 -0.009014243848198988 -0.8246782636297489 0.271851421917055 0.495986457373886 255 0 0
-0.030100670518335093 -0.030396416658136166 -0.03557567143059165 -0.808876622104193 0.2822542020573002 0.5158014885925662 255 0 0
-0.04741545712283224 -0.016857622387984716 -0.027148628326798208 -0.7653965940408184 0.38891664376225704 0.5127493520575295 255 0 0
-0.04597484929600604 -0.01653147297576385 -0.032438384137554954 -0.7920181954090466 0.324935257160563 0.5168406493252983 255 0 0
0.010389739056448022 -0.02480043039003435 -0.06282180516800395 -0.7965360660810784 0.2964026784117082 0.526949473538446 255 0 0
-0.025926380937643434 0.004545019364434105 -0.04053561572064762 -0.8184150071376057 0.14479822777561654 0.5560848400424105 255 0 0
-0.04512897389937698 0.017028886609700478 -0.031959456019029775 -0.8716256794784557 -0.02961841013654782 0.48927642969460894 255 0 0
-0.039024903842993064 0.02237496358714977 -0.03713408641555982 -0.8219021406042957 0.04085985964285521 0.5681613706862186 255 0 0
-0.032660893137403946 0.0304060434560961 -0.03929528288917006 -0.8054773934163161 0.2526787332805172 0.5360593497393832 255 0 0
-0.032321905060542555 0.036677853361193696 -0.041994727210913574 -0.8255796488630236 0.13423762120914165 0.548086219891832 255 0 0
-0.03107976814979274 0.045697424716719004 -0.04524831883515307 -0.8149299131786885 0.21779893450472304 0.5370780769452266 255 0 0
-0.030235267648545228 0.05627940834877068 -0.03974319172682522 -0.8180547341413645 0.22186488488253622 0.5306245610645632 255 0 0
-0.02166078653285164 0.05584618973710373 -0.04552870947480886 -0.843199094185974 0.1199635134102873 0.5240458405657016 255 0 0
-0.022020509056732362 -0.03234779691055795 -0.03381710384204345 -0.7979114675988777 0.33908324590986477 0.49835714323909847 255 0 0
-0.04665506068347958 -0.017300981740209775 -0.021071328008621604 -0.8038495533852237 0.36459274691956456 0.46999789831021865 255 0 0
-0.09389823656423762 0.00956443532127263 0.00998516573793351 -0.8122639756875418 0.2889748327564727 0.5066762080793188 255 0 0
-0.03632544942858873 -0.005412326099696579 -0.029372942936801927 -0.8423192968779469 0.21942931278034927 0.49228952741225845 255 0 0
-0.02861081039545188 -0.00012222580272175376 -0.03604681273225013 -0.8309871107525117 0.2515828799958166 0.49615166658613896 255 0 0
-0.031690359467146934 0.012951981474100122 -0.030216238834608555 -0.8097375873939189 0.28056023092841414 0.5153746175190146 255 0 0
-0.01886714951575763 0.009519465722442888 -0.03707693849825339 -0.8332751425939384 0.2783370103220296 0.4776829967876666 255 0 0
-0.028451444715478003 0.03771089259694077 -0.036139816232052036 -0.8586767404538866 -0.0072963103626301545 0.5124656273922973 255 0 0
-0.025826372129705066 0.042733269887013425 -0.03888817183775117 -0.8366948989274123 0.19227683881658533 0.512807238017901 255 0 0
-0.021776168043441624 0.04803891431123608 -0.03832741813534085 -0.8162627887357284 0.22289711150164762 0.5329464676771896 255 0 0
-0.02115544193476604 0.05584893048781489 -0.04563641598569773 -0.8236630125233411 0.22018731761842297 0.5225866310584095 255 0 0
-0.01650536949442749 0.06738828920902595 -0.04248704888521143 -0.8511869485439804 0.08472950216198223 0.5179784648919007 255 0 0
-0.06515131657250367 -0.018878338093852337 -0.0028918098331514597 -0.8294786718262639 0.25945065044924737 0.49462156540814095 255 0 0
-0.06468698121484157 -0.017247343752834904 -0.0013093075445886893 -0.8124158639366714 0.28155497643963023 0.5105950051323563 255 0 0
-0.08652935863611355 0.008056153360408491 0.013880278767339549 -0.8386817432349469 0.20532140278611483 0.5044363737106322 255 0 0
-0.02423104653280239 -0.01342504871315714 -0.026207414373868754 -0.851159764761518 0.22721696244109735 0.4731802054504798 255 0 0
-0.04789120869005714 0.013221001185643344 -0.012113084950323594 -0.8119456040635001 0.2847481390368219 0.5095712250088544 255 0 0
0.0039931156154137115 0.0023436368905468963 -0.043866709673743065 -0.8228011256591339 0.2600428225630252 0.5053474429019278 255 0 0
-0.031066122265589136 0.019366157069427375 -0.026279706445823336 -0.8294560835891633 0.2146169669741383 0.515695804601655 255 0 0
-0.03310277608286394 0.023039034979384393 -0.027968851684791574 -0.8309662396411545 0.27148826943362525 0.48558133009473786 255 0 0
-0.029994210973229074 0.03223974930507684 -0.02588222688354952 -0.8121593221749335 0.26526466694286355 0.5196459293365477 255 0 0
-0.02936738380081172 0.034676829003378096 -0.02690442754128114 -0.8153791202440607 0.27250563278933554 0.5107813332220603 255 0 0
-0.020513717851613045 0.039447807084627196 -0.035839332029405035 -0.8353512655312609 0.18628318187875387 0.5171912985776617 255 0 0
-0.02101574098983916 0.04387061899637723 -0.03576440947669296 -0.8178612907443946 0.23101323250001785 0.5270064473152161 255 0 0
-0.01923195047316062 0.05265297713108186 -0.03532758392392549 -0.8439459137396003 0.16989253797516768 0.5088141313118058 255 0 0
-0.017215003563184728 0.060827246173317806 -0.03901575442189453 -0.8394617946431788 0.12278973132319032 0.5293643142638462 255 0 0
-0.014557619291510226 0.06777734289045695 -0.03882307916416328 -0.8429901449845308 0.2087317412347044 0.4957808746412957 255 0 0
-0.0054700292140780205 -0.055869112610514526 -0.030175308368833254 -0.7982127133310726 0.4031102670422511 0.44761431710991084 255 0 0
-0.0338624936168298 -0.023727595274762286 -0.012919783444832411 -0.806147159246924 0.3332628341051139 0.4889403246228948 255 0 0
-0.011070726876203807 -0.02788913130065998 -0.024374645076283563 -0.8501138443874138 0.22412542572778105 0.47652307931850796 255 0 0
-0.03931418559396671 -0.010335407013553094 -0.00957417537142674 -0.7994288438563243 0.33635009828120627 0.4977771941308315 255 0 0
0.0035718874151121627 -0.01692066399613923 -0.0371679353037771 -0.8380503871435703 0.2534515098808611 0.4831499567914954 255 0 0
-0.044446931395372036 0.007373056116089349 -0.005794497951453481 -0.8657574955726528 0.20050377179505763 0.4585435599326674 255 0 0
-0.05654024046858863 0.012714392069975211 0.0013600755262022646 -0.8436084700679074 0.23769131201882868 0.481484775896863 255 0 0
-0.02032507739692091 0.007367843245223354 -0.02809731078488492 -0.8433429571382527 0.20227935918475462 0.49785109972070196 255 0 0
-0.013745099968580421 0.030268962262715887 -0.03255711795524996 -0.8427858999794475 0.18177440816693827 0.5066260863115833 255 0 0
-0.014707113848891451 0.04307660709086203 -0.027310501525854458 -0.8760132285823223 0.22414755238003564 0.4270347738894517 255 0 0
-0.016300085086911165 0.04584962345248014 -0.030909149205097408 -0.8460946002838133 0.10991277692166507 0.5215775194924935 255 0 0
-0.01570414401486686 0.056626364805261675 -0.03243317177898469 -0.8268060594591585 0.20752745427571426 0.5228040701481386 255 0 0
-0.0030208389292051274 0.06169246984536836 -0.04192359046351268 -0.8280444673420831 0.18827332360999965 0.5281055914502424 255 0 0
-0.06252262604850778 -0.027068304603239557 0.013888211266232964 -0.80551692824359 0.35329375749206465 0.4757373216704248 255 0 0
-0.000768884542770909 -0.04929886039838213 -0.025183900453438268 -0.8184206925818003 0.26536708822450805 0.5096742866195747 255 0 0
-0.05579540547115647 -0.01888688435514671 0.007105507820022949 -0.843616726625973 0.22892304083383294 0.4857005867118852 255 0 0
-0.015083368734281288 -0.0339827314582373 -0.021236167498941583 -0.8136665842627469 0.31710628401713914 0.4872271485570523 255 0 0
-0.038713371852191036 -0.01586076912991813 -0.007078731437245245 -0.821321425260202 0.3058971473693376 0.4815164084845419 255 0 0
-0.03414769167422316 -0.011336916288009702 -0.00403263761304179 -0.8508126821356704 0.23367627711331626 0.47065186436639905 255 0 0
-0.021719184877359243 -0.0053113295750105705 -0.012456994274589905 -0.8130931682939323 0.3253701642630926 0.4827149841067121 255 0 0
-0.01840639901175134 0.003667403067213776 -0.015118997259230327 -0.8505051826154081 0.16418762030198297 0.4996832593592698 255 0 0
-0.01804144406932573 0.011574040999942747 -0.014966969707796096 -0.8593689451462427 0.2044537117327008 0.46870427337176673 255 0 0
-0.03087148316540045 0.020646624831210936 -0.007540174408496025 -0.8538874109384933 0.18471258269302163 0.48657738463232175 255 0 0
0.019799802865425153 0.010563988052849693 -0.04629187999266626 -0.8674573699507774 0.16876250080633812 0.46801381351373705 255 0 0
-0.013621840609744473 0.0256355152061577 -0.021473762151754616 -0.8447346402200848 0.28413039333398227 0.45353424037895995 255 0 0
-0.013861709082697238 0.03462439203454293 -0.024009022040613448 -0.851511427070989 0.16328550663290708 0.4982631161255694 255 0 0
-0.007793808512253975 0.042830225239401304 -0.0234207057870372 -0.82746481611407 0.24884977866838284 0.5033644462514264 255 0 0
-0.03707678358755917 0.06263116220143669 -0.006882101613202851 -0.8680134566807362 0.14141420231060237 0.4759775860332247 255 0 0
-0.024913989256425517 0.06623029529169852 -0.014501957592199521 -0.8581671664405686 0.08805358892870262 0.5057624738156643 255 0 0
-0.005861102743920266 0.0632268629624071 -0.02620863205866114 -0.856786792762822 0.07730517436636766 0.5098434090614319 255 0 0
-0.007262664446348599 0.06808634983286199 -0.029398160156305808 -0.8549342415704997 0.0782087636059342 0.5128068173157466 255 0 0
-0.01636319131025299 -0.047059055107976006 -0.006402542497351782 -0.812422024493035 0.2834836988770418 0.5095168756671646 255 0 0
-0.034283059694134144 -0.033947847169549406 -0.0008713707922989311 -0.80027344857783 0.3635796524296125 0.47683565705650566 255 0 0
0.004281150992790028 -0.03995068595053047 -0.025234029474450193 -0.7588546118451033 0.4561406499968978 0.4648390963568203 255 0 0
-0.03350756346790118 -0.013053473611301575 -0.00019765448595271407 -0.8155645935287832 0.28288277644237897 0.5048086058839347 255 0 0
-0.03248602007464818 -0.010589415410052871 0.00010749927132147619 -0.8536335563474666 0.22294002872545426 0.4707520526449888 255 0 0
-0.022508574701645467 -0.006834945862241176 -0.010235702876254915 -0.580927087356661 0.751374572263401 0.31298557687423467 255 0 0
-0.011972972244500113 -0.005427777702508546 -0.017347700661690058 -0.8096857873675987 0.2840701055284705 0.5135300389266002 255 0 0
-0.0161511505992048 0.010995984332846542 -0.01514098636907163 -0.822923142304047 0.280183569491901 0.4942617416381836 255 0 0
-0.0028964553384926983 0.016165492501588885 -0.018549604645223206 -0.8586776576873042 0.21470837624471684 0.4653740359742923 255 0 0
-0.017985829825241884 0.03322835585902717 -0.010206040729595134 -0.8737260955929753 0.19953311947746616 0.4436093372681037 255 0 0
-0.015938025967096703 0.03521557591580787 -0.016192960096029607 -0.8815746878994936 0.04636032371796137 0.46976248257994835 255 0 0
-0.006932196531209467 0.04276925762999273 -0.02158702706239385 -0.860548330989847 0.2083655580959337 0.4648014245136936 255 0 0
-0.007530072184220971 0.04312362849703022 -0.02291692912321025 -0.8527895410829454 0.22776155086794797 0.4699730572764426 255 0 0
-0.005494941055523173 0.06326073883537497 -0.0257297445970453 -0.8381288370454899 0.2047840282532526 0.505572501512044 255 0 0
0.009548056644109182 0.06506223878641487 -0.0342876759352882 -0.8571841902548301 0.09535407190753424 0.5061055867581625 255 0 0
-0.04929874798360001 -0.024960668795187158 0.015456559206413534 -0.8103697533252687 0.35051447753511816 0.46951087733281144 255 0 0
-0.01832707138823142 -0.02794506417075604 -0.001800029806830028 -0.8123627267804103 0.32890192864039597 0.4815499158701248 255 0 0
-0.025143048820640335 -0.0063811243666786754 0.004030789755053277 -0.8286701758045388 0.29967221819433854 0.4727603001252954 255 0 0
0.06867690534811133 -0.03415889007159753 -0.048880276136451406 -0.8507985364688622 0.2635166187539885 0.4546436428488881 255 0 0
0.02033263052432377 -0.008628976467804805 -0.02639326325859115 -0.8619554783813346 0.23703104520235474 0.44816184230552675 255 0 0
-0.04474826850810654 0.022472056196244844 0.010072401210447945 -0.8334901363652802 0.30619450334070253 0.4599338199194826 255 0 0
-0.012351467579158504 0.017849951488879606 -0.01026771151288447 -0.8577199893594863 0.15882151317777565 0.4889704968656946 255 0 0
-0.006856891249478969 0.019443018983903493 -0.014205966677963311 -0.837891531187271 0.2773792703057868 0.470104799347209 255 0 0
-0.011452515164875443 0.027404939564002362 -0.009394710725653566 -0.8592476724826885 0.16819944228276998 0.4831173614649423 255 0 0
-0.001959731725631575 0.035757984354691325 -0.013201134552798921 -0.864196104039304 0.22925019268178334 0.44789445511041287 255 0 0
-0.004191979136963009 0.039880800303530445 -0.017241672078628922 -0.866456413547976 0.22043004578055836 0.4479552191221346 255 0 0
0.010294282196232518 0.046377257126259425 -0.021078224700310455 -0.879917718517014 0.12741418592530243 0.4577230973687098 255 0 0
0.0035498432197408336 0.05384814405659463 -0.016855777046125786 -0.8503246658239408 0.1935085125271011 0.48938984283590525 255 0 0
0.0030185581869961453 0.05684982534903538 -0.016980938089607434 -0.8483174291298184 0.20484767979116236 0.48825707114055483 255 0 0
-0.014976467334807952 -0.04128423478437984 0.0069152365166779695 -0.8459304070705114 0.31476495196711746 0.43049363689450393 255 0 0
-0.03000559696020444 -0.020857812217493 0.016518102792382583 -0.8285145657458576 0.33555204254631465 0.4482950379938967 255 0 0
0.000200671493613247 -0.026343486479383782 -0.005772662298111075 -0.8577199895643626 0.240906087462499 0.4541813256015934 255 0 0
-0.02502534094931741 -0.007647991284194355 0.009463080964363657 -0.8414171336246498 0.3398203029801937 0.4201658826289061 255 0 0
0.01144123843236855 -0.012254991029859219 -0.009185178967759278 -0.8528168491312249 0.2776694307737182 0.44227040264038564 255 0 0
-0.01216509228131979 0.005199100655911365 -0.0011863265474508777 -0.834117047225768 0.3150000044690454 0.4527954822122979 255 0 0
0.01001062440446776 0.006259293814761785 -0.008976743726861414 -0.8793370668708775 0.17849786680817092 0.4414802763112461 255 0 0
-0.0004679935367893906 0.027860996706138952 -0.007692352869990315 -0.8633574877423145 0.2585434842979753 0.43332333780485655 255 0 0
0.0010597643092961073 0.0315036378985139 -0.010004758855930607 -0.8371266862120601 0.2839548676300488 0.4675345381689108 255 0 0
0.004411994748528936 0.055732693884346596 -0.016588594656740563 -0.8477311685674069 0.19424441662897904 0.4935797528746557 255 0 0
0.04180525048764261 -0.05878915366131038 -0.015446678567969663 -0.8337255306538848 0.3309137661007665 0.44203825506499483 255 0 0
-0.07631827971661331 -0.004753637269679839 0.04392575539183613 -0.8197330085317118 0.35868680203072845 0.4465216375188525 255 0 0
0.06398395506605281 -0.05679363827645212 -0.032830036410560814 -0.8175453085250877 0.4021141999872303 0.4122181930449565 255 0 0
-0.01705043044513921 -0.01974693266924682 0.011586607030145524 -0.8640916049470205 0.21183701245861916 0.4565860033035279 255 0 0
0.03193399931812113 -0.026843976918690476 -0.018891932046858184 -0.8665468140337936 0.2352779851933642 0.4401600717593916 255 0 0
-0.021933363443875864 -0.0063004207106296395 0.0109127481140317 -0.8903492195536908 0.188768925924267 0.4143000842934167 255 0 0
-0.025083941528068032 0.029850614503171835 0.01645234691932046 -0.794894921048492 0.47370436410202177 0.3791388135261423 255 0 0
0.007149010761824948 0.03127634230485324 -0.0033447511671763075 -0.8431028914753655 0.29541968528069606 0.44933809535196617 255 0 0
0.010171586811829836 0.03764454294164565 -0.004174605011046495 -0.8827200259466543 0.10999278731702163 0.45684454963474214 255 0 0
0.00681424925366092 0.04612274733878055 -0.009629110879809721 -0.8717734124912573 0.10274260494715663 0.47901469121731605 255 0 0
0.00817117648193455 0.051403682341175705 -0.010795369099198981 -0.8662848193617468 0.21304507961170838 0.4518433420961589 255 0 0
-0.022845832692892754 -0.03789605598498705 0.027988116468915525 -0.867043240090228 0.2546723478753104 0.4282265931040668 255 0 0
-0.005815226300908916 -0.03806338334840323 0.015210374315157926 -0.8277942026244024 0.347210562769343 0.44068308703968445 255 0 0
0.009148587860553503 -0.04182969667469802 0.005829974116422387 -0.8321342161614624 0.32434489900584873 0.44983667345185874 255 0 0
0.07884410709007783 -0.06215131676009261 -0.029623657470735143 -0.868306890970673 0.223918551257359 0.44261001513256476 255 0 0
-0.055866597217396174 0.0014695201868565322 0.0398842433086698 -0.8316657514946406 0.34981439241749734 0.4312330792604295 255 0 0
0.002177421739519181 0.014041328135756342 0.009120554075841336 -0.8620359654743115 0.2419566647203061 0.445366104038236 255 0 0
0.0024920329357031035 0.014564750295358309 0.008654065149972467 -0.875998154265573 0.2157860830169089 0.4313509013547196 255 0 0
0.006303843037251511 0.028042434700458058 0.002447502123644252 -0.8740254487579087 0.20216531216188055 0.4418242880173359 255 0 0
0.006553164173558446 -0.04227314483364206 0.015796245593748537 -0.8393540216672031 0.3408564168270838 0.4234403493042363 255 0 0
0.01885459064044792 -0.031883429554861675 0.004780708330051731 -0.8618099139551241 0.186660152185597 0.47163721205468023 255 0 0
0.003893698142076185 0.01431101314035868 0.009025248848556988 -0.8357574248047492 0.33396521635226395 0.43586323675038185 255 0 0
-0.007264743156139342 0.03950181488951457 0.013937334749356434 -0.8588888541111878 0.22292831054642726 0.46109966887917664 255 0 0
0.026003385493247544 -0.0644211893141993 -0.08008150655023061 -0.9484588198778762 0.24233954476157885 0.20419944182249164 255 0 0
-0.07913444430325356 -0.009874765346852499 -0.05194595238273411 -0.9309596872294167 0.30601662773784294 0.19916798011142564 255 0 0
-0.03207625380862744 -0.017696746917554934 -0.06463517460635176 -0.9272906590715231 0.30937557475800254 0.21075765073148808 255 0 0
-0.08245554823725543 0.004447733156630385 -0.05188485714340904 -0.9543111739401262 0.24401879641131752 0.1724674180562523 255 0 0
-0.04126734493514128 -0.004465557763244643 -0.06036658472102424 -0.9619193203696081 0.21473486400824235 0.16911581617055485 255 0 0
-0.050415633459008014 -0.030268156484634906 -0.05217749619983306 -0.9500563939407122 0.25021261792357474 0.18651137810922308 255 0 0
-0.07565317078981448 -0.01762234121558659 -0.050029843604814994 -0.9238463140401019 0.33519271564026415 0.18480755237874458 255 0 0
0.018043823431760253 -0.041829471839413906 -0.07117311379873853 -0.9190783470852498 0.35171783180180327 0.17773451750204147 255 0 0
-0.057031919425875044 -0.006097569104909023 -0.05181312222257743 -0.9619508154446776 0.1694055353191523 0.2143650934003743 255 0 0
-0.05340429849657158 -0.0008308849311563504 -0.05282902292757209 -0.9424455134045847 0.30519435045239945 0.13657548358144872 255 0 0
-0.031180403698630954 0.03450078429899797 -0.06058578527894273 -0.9640538969213237 0.2285848911478169 0.13545859651476713 255 0 0
-0.0340700082906894 -0.03495089034332999 -0.052715451112120365 -0.9502029947375689 0.28106463997292425 0.13459917142629896 255 0 0
0.044015625879347375 -0.059316261125633984 -0.06832816426593194 -0.9777642132666261 0.17053988495104672 0.122038071502214 255 0 0
-0.05952256136681189 -0.012311574128779285 -0.047352032519953 -0.9230297576073913 0.3454900167617768 0.16927112833908708 255 0 0
-0.06162284020582076 -0.009701698274570264 -0.04389697995403953 -0.9455552354249062 0.269093128428045 0.18306879852492056 255 0 0
-0.05669227734097837 -0.001454318388339676 -0.04446029489657122 -0.9648856880021917 0.19082275996472373 0.18050563251040858 255 0 0
-0.05170498908462218 0.0032865077633704998 -0.050783387456223794 -0.9575131689497811 0.21947558558821495 0.18708019301480858 255 0 0
-0.04122348312965063 0.003843513612425631 -0.051276543460211224 -0.9543858458979526 0.24435368868731505 0.17157777237903504 255 0 0
-0.052176399407026675 0.017741842019814436 -0.049288119759214544 -0.941970990881114 0.2697499519807604 0.19981395282819858 255 0 0
0.012460070761526554 0.011684619409238206 -0.06424948358139099 -0.9746935267163591 0.12751213024260755 0.18361150731427092 255 0 0
-0.016218752678357262 0.02165892995025348 -0.053556800161917634 -0.9796293969076424 0.1395116211391902 0.1444394415714905 255 0 0
-0.04101476931056758 0.039649812341231855 -0.055265063263072456 -0.9761895738776628 0.16099225821930993 0.14538022095867825 255 0 0
-0.03681809038326611 0.04414816897770815 -0.050596281652467365 -0.955106842465426 0.25830936998122295 0.1450764931187258 255 0 0
-0.029221582579737837 0.048799764698015086 -0.05196113034660778 -0.9802456355398388 0.12588809373647913 0.15254731023683424 255 0 0
-0.07107465190183904 -0.016345420524326526 -0.03916635353960726 -0.9628093563378601 0.21710250930243127 0.16082488552106405 255 0 0
-0.050659770979474605 -0.003095648759665448 -0.04055385716545511 -0.9511159396989463 0.2599190430218905 0.16679496492752766 255 0 0
-0.020837327400829442 0.0007127963316260477 -0.050966390773632034 -0.9673523357976918 0.2139734064953246 0.13581178056242577 255 0 0
-0.037928232727065914 0.03328256274053684 -0.04539171006497737 -0.9570304594199445 0.22390131334294505 0.18428483829592252 255 0 0
-0.03372567366814749 0.04217843882631561 -0.04680329334268361 -0.9701416406202753 0.15463864707307806 0.18684776146908616 255 0 0
-0.05908232651835599 -0.02044807118979855 -0.035439073174664285 -0.9467181626743304 0.2757032627007667 0.1664705120995665 255 0 0
-0.04341792186940274 -0.017518342080695498 -0.03463414142947198 -0.9503551010359967 0.2636733217850092 0.16523184110128245 255 0 0
-0.04979424009394129 -0.0075413700179288445 -0.03442635969036406 -0.9479711160556904 0.2866226809056917 0.13855757617165088 255 0 0
-0.059977462854455044 -0.0037736322423370383 -0.032116066284724784 -0.9725083122138394 0.1647302587499974 0.16459503190299637 255 0 0
-0.042808525859593494 0.009679078065495228 -0.03889846434984756 -0.9779030574435507 0.07591837600126497 0.1947870899928594 255 0 0
-0.03305202216804082 0.01435229703681487 -0.039393849557437896 -0.9461817557894566 0.2661113757551496 0.18418691784402788 255 0 0
-0.03507510161928751 0.025146217320434067 -0.039863049194802325 -0.966730816891845 0.1727494103146865 0.18865091812009263 255 0 0
-0.033130379393673914 0.03514738263586184 -0.04187637193161693 -0.964594297495175 0.19795820853094678 0.1742710214436353 255 0 0
-0.026284776327057502 0.04551664709166511 -0.03965848826027339 -0.9553559573035058 0.28040827699934656 0.09309238978004412 255 0 0
-0.024466932111452344 0.055848414939183605 -0.046033934651476136 -0.9426765563001751 0.2914287313860169 0.16257369013705655 255 0 0
-0.02249853378480282 0.05599148321468275 -0.04563125076723272 -0.9705129026083322 0.20772169462793133 0.1222963754640761 255 0 0
-0.017049197430516805 0.06556462277602947 -0.042292336672698716 -0.9856513738844971 0.09365832257561872 0.14042609362908584 255 0 0
-0.02840951077325704 -0.034075967232169546 -0.0352794640682878 -0.9688939327851472 0.1889059268584112 0.15987212955951696 255 0 0
0.04372082770884922 -0.05140837351846511 -0.04570415467332886 -0.9666047068812724 0.20705169702388204 0.15101303054537993 255 0 0
-0.0458908712220818 -0.016844183152429304 -0.03300175999979278 -0.9286815387040537 0.320871422489005 0.1859895962148255 255 0 0
-0.045262574984721415 -0.009433500714322945 -0.03126351741636635 -0.9481895181807658 0.22745035678100275 0.22181743126346473 255 0 0
-0.03558691385546209 -0.004943803958387255 -0.029864174019431367 -0.9727480706795769 0.19981896262614496 0.11761621131532889 255 0 0
-0.034338823840949884 -0.0030152217842939755 -0.030982078162542365 -0.9426571170163791 0.3232163966016915 0.08323893744027897 255 0 0
-0.02446979968597962 -0.0010803693433625305 -0.03750837452578669 -0.9344826510772154 0.3167411991813545 0.16253365059844277 255 0 0
-0.001856699846923604 -0.0008113396815821183 -0.04172975189152556 -0.9515153181444049 0.25455122552857357 0.17269126474275753 255 0 0
-0.03710400522487067 0.021120025654785324 -0.03061917576681257 -0.980944613523035 0.14523526858883135 0.1290518576312393 255 0 0
-0.060388760525786345 0.04579432174969916 -0.03026408983168112 -0.9270957636771812 0.35564727555781306 0.11835734180915544 255 0 0
-0.02251341670775664 0.05053480037479907 -0.039591844668154894 -0.9673653783678973 0.19271062349819082 0.1645200301667663 255 0 0
-0.01896987079530521 0.05961149746257896 -0.04046996970375004 -0.9732434118234652 0.1947927911488829 0.12187300709611172 255 0 0
-0.013510952211577165 0.06510613684676979 -0.03670128949836082 -0.9689300476587795 0.18761103192764764 0.16117277512966757 255 0 0
-0.014096158920083424 0.06780783164964481 -0.03972133840280531 -0.982977516333457 0.11251975100068934 0.1452394850502133 255 0 0
-0.06525250086558854 -0.02194899521755428 -0.021077557073073877 -0.9793817940591639 0.03973033264275301 0.19807271930669748 255 0 0
-0.04590554835785565 -0.017665646078554975 -0.02623354981407769 -0.9345478790697288 0.34729064754042277 0.07752075758934147 255 0 0
-0.04443782950287156 -0.00895169039126481 -0.024151525568796517 -0.9431905092914418 0.3054300287996913 0.13078287613434134 255 0 0
-0.03510469643615188 -0.005035732846718571 -0.02891666251706755 -0.9897348147677216 0.12177580150856922 0.07480408146384306 255 0 0
-0.02950713640293856 -0.0016457091584579364 -0.02506774997403116 -0.9726279094691853 0.17898472627494819 0.1481871029539481 255 0 0
0.01700239638927037 -0.005698034529359242 -0.033617433773468805 -0.9625667676500979 0.2227815542641424 0.15438133596809986 255 0 0
-0.046437078862125225 0.012298853327678966 -0.024257742701064525 -0.9698467897103361 0.19020959881081367 0.15237294053992853 255 0 0
-0.03077054277240887 0.019293902501452964 -0.026293206525434945 -0.981643074875864 0.11932169760898202 0.14879249318419768 255 0 0
-0.034566427530827726 0.028182667993150085 -0.030798078917027363 -0.9797534157396148 0.12111971837276582 0.15941536365061992 255 0 0
-0.02881535624706333 0.03404760857905456 -0.03092238716875767 -0.9667030987951846 0.2439852965603675 0.07717702923886789 255 0 0
-0.024625591587504436 0.04097159713949683 -0.032577998230993374 -0.9835380192276763 0.07764965654430953 0.16316707870232203 255 0 0
-0.029507458102663087 0.05875500178726824 -0.030199735534132674 -0.9865118903707315 -0.011064007832575367 0.1633152714471199 255 0 0
-0.007802444806884856 0.06774095835017349 -0.03117061289774202 -0.9600775264044147 0.24908190566264507 0.1273159360199871 255 0 0
0.03535146281104107 -0.05438734617019608 -0.026994844148236385 -0.973054181763907 0.1873198758133481 0.13445007801055917 255 0 0
-0.051383862457169416 -0.01813799461243451 -0.015879732710579547 -0.9649686162057846 0.19094208907427437 0.179935233786619 255 0 0
-0.044745302594298764 -0.01777353069991716 -0.01952672001113233 -0.9382478037713947 0.33215949997912997 0.09675290844087717 255 0 0
-0.03326244068578288 -0.005983509809727394 -0.019634178538836852 -0.9698785220291487 0.20416226799557863 0.1328661764086538 255 0 0
-0.018286738250590462 -0.0008912047788427468 -0.01949990348154293 -0.9735991999510588 0.20654203148435232 0.09718532340315067 255 0 0
-0.03808202315521081 0.012588635666270692 -0.017435271927599486 -0.9740505180282165 0.19999066565463128 0.10596849522372438 255 0 0
-0.024212873070684204 0.018285481452318147 -0.02235253741310883 -0.9683555483050539 0.1142136855953868 0.22190711139919966 255 0 0
-0.025033500791922347 0.02325283829770164 -0.02007111497468407 -0.9730899099292231 0.18387525802913884 0.13887374366183844 255 0 0
-0.024799046019867488 0.027720804136181137 -0.023927763966113486 -0.9697821149110454 0.19754794137593246 0.14316934188851693 255 0 0
-0.01870386120430556 0.032953349948520144 -0.022998098964683772 -0.9616945104500991 0.2499969921283735 0.1124507558752287 255 0 0
-0.013350551099259644 0.039422785993923265 -0.02378884805538195 -0.9801369934694505 0.19264400650702201 0.04711433741005656 255 0 0
-0.007886526124017856 0.04364775546864735 -0.023653483756186366 -0.9677080394846644 0.2116050996135627 0.13698332794278767 255 0 0
-0.012732464931357934 0.05453165385199929 -0.028475718457646335 -0.9873966141694691 0.11226128618427694 0.1115586390689692 255 0 0
-0.00346550524338729 0.05988167367305172 -0.025610238192318988 -0.9846371054379023 0.11300475318379918 0.13311534980135806 255 0 0
-0.007737018943205443 0.06778014466545178 -0.028562703639645193 -0.9776967746113823 0.16569779247587277 0.12904750475357 255 0 0
-0.06316804995378145 -0.02307858324273393 -0.010416021617323815 -0.9919939741206479 0.08899503631008587 0.08959820768569994 255 0 0
0.020709525262823325 -0.04262408475553006 -0.021535793042169904 -0.9519712483151327 0.29603420823382337 0.07819520405179117 255 0 0
-6.455193661714098e-05 -0.03130680200915856 -0.01889030127474528 -0.966949059764702 0.24090787521544665 0.08350396086017278 255 0 0
-0.038616617566664235 -0.01043871609059649 -0.009628102837418537 -0.9617346994744485 0.26912016922096244 0.05138776454831092 255 0 0
-0.032574904866086496 -0.007872075674865503 -0.016441603044454717 -0.9930104219220536 0.09407348751755885 0.07127749224312484 255 0 0
0.02704156281563952 -0.018613384020226387 -0.019444546430276516 -0.9506393118060179 0.2833551089011893 0.12647047524452457 255 0 0
-0.01804988351633019 0.0037764669153000363 -0.01510414900322532 -0.9833561560812631 0.16539507176678767 0.07520066843015201 255 0 0
-0.015681203568852276 0.035544132393246164 -0.020374126070060894 -0.935162942918512 0.35093806173311265 0.04809102846679128 255 0 0
-0.004450397412638418 0.04035203381452224 -0.017303931980862622 -0.9683386220443824 0.2147027075143206 0.12736977837464777 255 0 0
-0.00836049561671981 0.04304674642328024 -0.022141472276217614 -0.9680097621867131 0.20665747697779496 0.1423017481283885 255 0 0
-0.02367383183375371 0.056278927541784346 -0.020233796289907208 -0.9814526421242481 0.1359188747522773 0.1351916075553782 255 0 0
-0.0049645006634380096 0.05453948293859934 -0.024077772827288485 -0.9917839897655059 0.07531023601726552 0.10340641177334506 255 0 0
0.0022522052602480525 0.06348051395056896 -0.020183616882446742 -0.9898146472224948 0.033063872140297164 0.1384692908297657 255 0 0
0.008659614024728812 -0.05190973774884158 -0.013588651110389288 -0.9575287380866682 0.2707839390060529 0.09906954181038227 255 0 0
-0.02605167496866001 -0.03254447957695722 -0.006063684905832478 -0.9673349321745899 0.2527369860715888 0.019675997210590802 255 0 0
0.01539585490724582 -0.03318785224591422 -0.014549289995703402 -0.9568726483602981 0.2862895580254233 0.04932569092832941 255 0 0
-0.02231558107182463 -0.006890616170540986 -0.010248146613494574 -0.956233099444125 0.275693872854363 0.0980364625945095 255 0 0
-0.0703300177309314 0.008679270996300031 -0.005561329898636697 -0.9464693870546862 0.30473697383361603 0.1064475276700051 255 0 0
-0.052351771152501114 0.009229208726954624 -0.008265252036967943 -0.952926013308118 0.2822691802460127 0.11070737574317382 255 0 0
-0.015129198980574077 0.011035274682035856 -0.01391065757537864 -0.9628913266594887 0.2416144029001689 0.12026127121864566 255 0 0
-0.015694107628032916 0.022265066565982317 -0.009009124624380069 -0.9851004390442372 0.13679865684337275 0.10422692780994885 255 0 0
-0.012152270453336667 0.026227547859427658 -0.009113374892172982 -0.9925468305599762 0.10713828134401444 0.058070455620709324 255 0 0
0.0005479846898642782 0.03377897906453842 -0.011729804129771551 -0.9528714236587884 0.30277571292053845 0.01905039736943394 255 0 0
-0.004140818398186252 0.040175254495377344 -0.017133611656734132 -0.9290235653230656 0.36019034158574487 0.08472386265252577 255 0 0
-0.003268778995941357 0.043902071363248446 -0.016668199411241827 -0.9847691926690345 0.11826711057727196 0.12744617579857517 255 0 0
0.003091078279186865 0.05258345873606696 -0.016436152634669007 -0.9903065550571507 0.04688980863878469 0.130745068192482 255 0 0
-0.028978654521978342 -0.04388911666891593 0.0038765025983436563 -0.9503723567501152 0.30872175927259654 0.03851310006822012 255 0 0
-0.020746140164059845 -0.04038038864997617 0.001391345084542861 -0.867207422676035 0.49223559992378885 -0.07520239506329801 255 0 0
-0.07443430913438576 -0.01991203882863532 0.006699795464584185 -0.9304026408337591 0.3612615567318945 0.06197591110435763 255 0 0
-0.036897619283786875 -0.02382765320702468 0.0003495285304759427 -0.9145270747589381 0.40360348775295574 0.02728468813289423 255 0 0
-0.031304140343004216 -0.016213769697843633 -0.0020511355271342485 -0.9750703787965216 0.15856746448078518 0.15522279343492953 255 0 0
0.05601605687632549 -0.03831667058566979 -0.01001355880426541 -0.9812248062793265 0.15904313027410774 0.10910161435428602 255 0 0
-0.02434052596388736 -0.006304247421005937 -0.0013809708566627082 -0.9619528270646347 0.2691285568160982 0.04708055233789355 255 0 0
0.0007078927193683304 -0.009658806662987462 -0.002635037465344159 -0.9617886681272867 0.2690247973978561 0.05087451471004327 255 0 0
0.00039816220615940257 -0.0010235951150312228 -0.002492069448690515 -0.9802946077618149 0.188505356334826 0.05906109232133759 255 0 0
0.04059437347100148 -0.005371780116217584 -0.008565198622574169 -0.9620162233103304 0.26234117775748017 0.07551087696846397 255 0 0
-0.009496526229479274 0.011987778844885388 -0.004198953498357652 -0.980663280117194 0.18011663674137066 0.07653449025611363 255 0 0
0.008466961824848962 0.039344176236265904 -0.009465919180302637 -0.9823386369490967 0.1681612896496578 0.08205231879937794 255 0 0
0.005922830914962596 0.04698093351094643 -0.010375179924603309 -0.9740713696132949 0.20869719755409824 0.0873524277438559 255 0 0
0.0033958129198438103 0.054407122422572285 -0.01064763436102506 -0.9828068159105062 0.1476410505718505 0.11087327354188026 255 0 0
-0.04436081954263427 -0.033583744390188824 0.011337031438746668 -0.9505793562495398 0.29109212401737655 0.10800121669343676 255 0 0
-0.01016201588310861 -0.03769776694901525 0.002287551439738647 -0.9847520633616617 0.1683429120244164 0.04386385386727156 255 0 0
-0.05565955792625821 -0.019144927050072924 0.007239646312903428 -0.9772061096346832 0.18586462339996523 0.10257953529353027 255 0 0
-0.03705219155010209 -0.015332729277392848 0.004393999874821614 -0.9938367811554314 0.10540303833384795 0.034331500587718465 255 0 0
-0.029270879045762754 -0.009511874310905638 0.008030191824694638 -0.9452032030347637 0.32611094904000065 -0.015574141679509709 255 0 0
-0.025913411647968676 -0.006551587773729994 0.004865018573779981 -0.9737266129242459 0.21920521555814557 0.06168919480089504 255 0 0
-0.018913692334380006 -0.004123737956594209 0.006263689995404401 -0.9811201923763153 0.18678573301255022 0.050142377829798704 255 0 0
-0.0027418389910033314 0.015436092013414754 -0.0012385956559788636 -0.9828298357810656 0.15363643574623487 0.10218297074247086 255 0 0
-0.0017523020225995722 0.01924414162177046 -0.0032191393054198103 -0.9843920606564703 0.15813844408879985 0.07723019757634582 255 0 0
0.005363969908718125 0.02308817248094075 0.0020186236724530487 -0.9773213006012963 0.06556560280128497 0.20135597115629547 255 0 0
0.006548147538933957 0.03165548463775583 -0.0035832044059395524 -0.958184995786185 0.26868536432349127 0.09843621715903907 255 0 0
0.010141719012954575 0.04007901543451772 -0.005372111071782454 -0.9886149869625083 0.1379391962040364 0.06010978043300407 255 0 0
-0.06722581429275143 -0.020689947317559132 0.014632948190064055 -0.9739631278768074 0.2060632695379276 0.09451854042337457 255 0 0
0.017982431713010505 -0.04367226029704288 0.0065534767052364 -0.9623010946005524 0.26816976847642493 0.045404609962859686 255 0 0
-0.03627508880041841 -0.017107576472772418 0.012314299491262691 -0.980549583911919 0.19133464424331928 -0.0437443413762871 255 0 0
-0.09816329257506629 0.011833954055837592 0.015586701356011576 -0.9387636003823306 0.3393999095444725 0.059418885873160854 255 0 0
-0.02536836978132395 -0.007590345240745366 0.009227061357065691 -0.9537822487280441 0.2852897483186188 0.09438846071196705 255 0 0
-0.02040147743856846 -0.00469413604195229 0.008469875209038052 -0.9814629907646196 0.18684969579862928 0.04263319058348588 255 0 0
0.008748994487957074 0.0071830300464128805 0.009030852429919606 -0.9870358038836291 0.14324110637272863 0.07240377957617036 255 0 0
0.038648597620212555 0.005571578410384748 0.005167330058598388 -0.9917447214474747 0.1270855730310715 0.01707819101763385 255 0 0
0.02378682845096025 0.023033351501959093 0.0006327237285239096 -0.9731301413205762 0.22848535134875206 0.028498636325844984 255 0 0
-0.03802113004035801 -0.03485053105565425 0.019504702272357656 -0.9692660804626156 0.23717520168393455 0.06535433398653288 255 0 0
0.03308913011810921 -0.051624084645392865 0.011825530255109587 -0.9312221490789263 0.3629165254749373 0.033420122711103596 255 0 0
0.006756433710231713 -0.037173603397511246 0.014654309167987774 -0.969805120744724 0.23551921940341278 0.06331449335593241 255 0 0
-0.02889787813997524 -0.019250673662646933 0.018519572566539362 -0.9685312907457158 0.24060856386353258 0.06367619525353327 255 0 0
-0.01772809866867997 -0.012188952628667815 0.015257330864194618 -0.9730726631812979 0.19229958887299947 0.1270844612394907 255 0 0
0.0016376628095541301 0.009985356048521965 0.010263656588530665 -0.9840203026542955 0.16658563499575835 0.06287503620045412 255 0 0
-0.024005865465310028 -0.037804864357966234 0.026417658647309293 -0.9475171586184262 0.31845511038097507 0.028241402158981185 255 0 0
0.1092439357617836 -0.06395446510856825 0.015922246608379147 -0.9589214857552522 0.26568071881862904 0.09941498782857786 255 0 0
0.05295077446057428 -0.034743807102893154 0.019934689414128216 -0.989525191736198 -0.011500875641370294 0.14390144119821116 255 0 0
-0.02621091508412776 -0.026082962768100654 -0.06748489918115236 -0.9743209025479602 0.13186133779374387 -0.18251401714217017 255 0 0
-0.009374468254031765 -0.01756168383034734 -0.06580818426917644 -0.9552570725533185 0.21414287629679138 -0.20402635581757855 255 0 0
-0.10310425250733957 0.011807836162550961 -0.08192019297956098 -0.9636851674150706 0.20058423874935383 -0.17628630482691957 255 0 0
-0.016861849350368496 -0.007487116383704945 -0.0649720344067182 -0.920612751512885 0.29510320098868414 -0.25570737673776156 255 0 0
-0.07575843971995933 -0.008167883573491436 -0.06774628126344268 -0.9472874763589858 0.19981109532165714 -0.2504435331961747 255 0 0
0.07671526467811085 -0.034194273843153905 -0.03845543048579411 -0.9641357499422941 0.17400505573692998 -0.20041081872293756 255 0 0
-0.03093060185485008 -0.01765549927905788 -0.05297200424773513 -0.9172668852024497 0.3727061324075937 -0.1403980063133705 255 0 0
-0.012893990180230963 -0.017202621686535996 -0.05400139247047786 -0.9541782524578244 0.2355367370844698 -0.18457060443129542 255 0 0
-0.02158208707930287 0.015990261734226463 -0.05283641572763395 -0.9417198592693035 0.21559456020860848 -0.2582299213225684 255 0 0
-0.02587209743685115 0.05209258752799528 -0.052811458038239306 -0.9753591756732077 0.08025797238901873 -0.2055070225030867 255 0 0
-0.08036218081372604 -0.017902201701393616 -0.057245834560647774 -0.9070024834004397 0.30047655324853423 -0.2950598855373531 255 0 0
-0.05999462217176843 -0.015927068662713817 -0.05521570352658611 -0.9468741653364774 0.26800628362510165 -0.17776936450302902 255 0 0
-0.047971728032810024 -0.013655793332626981 -0.05035833953248131 -0.9540344227035968 0.20454691983624906 -0.21904081327943817 255 0 0
-0.03189222279112469 -0.017200021683703354 -0.05160829305971362 -0.9316095702388518 0.29962261750460406 -0.20574230415515343 255 0 0
-0.05445921375153062 -0.0032345236214587625 -0.05289651175637383 -0.9401209877148617 0.2658116641062817 -0.21334640302353822 255 0 0
-0.042853925342593135 0.027183763325893784 -0.05017557470638637 -0.9448594073813739 0.24035176194628521 -0.22242241526481862 255 0 0
0.007107958286794558 0.024426717142242954 -0.03842145252549736 -0.9682785051441692 0.08869484920605394 -0.2336021408294203 255 0 0
-0.0385093034401105 0.04307515771951986 -0.048969434839980036 -0.9764325894251915 0.05921621423533808 -0.207539967909918 255 0 0
-0.027877589804526814 0.04850021397950956 -0.05254067766321016 -0.9395866979084923 0.19005920089017733 -0.28470043426451414 255 0 0
-0.02034053834915528 0.05556959694236978 -0.04580932575809141 -0.9603787796662486 0.1837174033539181 -0.20957221970399817 255 0 0
-0.07443910486621608 -0.018247601735089825 -0.052578365561388396 -0.8973357260825396 0.3369306248457516 -0.28507253241407327 255 0 0
-0.04141930888087919 -0.016393600773291023 -0.04689618551893812 -0.9478380199381742 0.25921266214392213 -0.18550440357021777 255 0 0
-0.03911430207364197 -0.009576990420465253 -0.040830546126530615 -0.9356737453585485 0.2774500922434586 -0.21802772429395811 255 0 0
-0.020434199694150945 -0.00591860773185679 -0.03732704346532517 -0.8828713453212944 0.3765385832273143 -0.2806365673816132 255 0 0
-0.050650009184848854 0.025707396905148977 -0.04796032412927642 -0.9516399660218935 0.15624230074755932 -0.26451789831117034 255 0 0
-0.04115681846327901 0.026722253138456387 -0.04842864187031484 -0.9699377269505578 0.10674033522742887 -0.21869455108328892 255 0 0
-0.023309801515470685 0.05065719863859161 -0.04052178873381604 -0.9273449969776797 0.25966294775838256 -0.2694557665775491 255 0 0
-0.011980430447195767 0.05074633734444778 -0.039787897310354314 -0.9528573056175909 0.18206836441566818 -0.24272219884095547 255 0 0
-0.015007876677413101 0.06897523929507231 -0.04067251341895872 -0.9775364451100671 0.014500445052481348 -0.21026705775002574 255 0 0
-0.05376897025033356 -0.02565357625878481 -0.04147185102466305 -0.9128822763591822 0.28599812694126914 -0.29129198563531344 255 0 0
-0.04385182701690049 -0.022149800566546946 -0.0379061864505191 -0.939774428076772 0.20146806790407026 -0.2761062149752826 255 0 0
-0.03499206159467205 -0.020459494415499296 -0.03345104142191477 -0.9538878304646179 0.2550821330415976 -0.15821223813110374 255 0 0
-0.05417668713791968 -0.004700993584976387 -0.041710916876622345 -0.9409306786057342 0.17168904455830292 -0.2918429886723503 255 0 0
