ply
format ascii 1.0
element vertex 364
property float x
property float y
property float z
property float nx
property float ny
property float nz
property uchar diffuse_red
property uchar diffuse_green
property uchar diffuse_blue
end_header
-0.033995379447327334 -0.014352920420905357 -0.003467653186972841 -0.8499672781385972 0.21014210133126948 0.4831106740093238 255 0 0
-0.02190433894933641 -0.005331427756610413 -0.012585844790665657 -0.8134596791139691 0.3173220772303703 0.48743209758693695 255 0 0
-0.023512857554360278 0.0034272200151090337 -0.013051168546014125 -0.8411840103378598 0.2274699067094063 0.4905781306718934 255 0 0
-0.02181734263026569 0.015691692433024124 -0.013998049232763043 -0.820207629098878 0.2605760142357111 0.5092735865652449 255 0 0
-0.00406116349629726 0.02026811622372643 -0.029305071160797613 -0.8421488747580841 0.26033763117661535 0.47223891256126 255 0 0
-0.022192180410643414 0.028057947977684267 -0.016229230427399766 -0.7998634854629916 0.31383012813266475 0.5115946200843298 255 0 0
-0.018613064760828357 0.033213880206240554 -0.016272785018507263 -0.8552027302966848 0.22449820463218456 0.4671497042812096 255 0 0
-0.008283508678082585 0.0438686201318198 -0.024369213452214433 -0.8100621843229003 0.2602082846262126 0.5254435327814926 255 0 0
-0.010959376307190904 0.0585107528629179 -0.027598705915315436 -0.8622201202321543 0.20354254309720976 0.4638393012847982 255 0 0
-0.008175052411472983 0.06681833756967223 -0.028975619028995148 -0.651537569832902 0.6401582156924163 0.4070580474302628 255 0 0
-0.007799277350534539 0.06836640023050208 -0.02884947472818522 -0.8554128115649643 0.2112674322079545 0.4729006173592715 255 0 0
-0.06381128674215686 -0.02073462088286951 0.016885836237171548 -0.8570871738915198 0.26609627092267446 0.44112849709772134 255 0 0
-0.0321621341032875 -0.028599605692524344 0.0015885628914347194 -0.8741605465907772 0.22635056311904989 0.429661216960296 255 0 0
0.002508767773850673 -0.036238404421444353 -0.02362810952591765 -0.8052347444054242 0.3391652556311842 0.4863783874464044 255 0 0
-0.033570179167487946 -0.013726683092785436 -0.0017328292221289177 -0.8454908278345397 0.24071313842781597 0.4766575762912994 255 0 0
-0.03252047062859875 -0.010763815626806006 0.00014883297282042296 -0.8242827624074274 0.2915022129139655 0.48537036113079846 255 0 0
-0.0228763063192442 -0.007739818400101184 -0.0057722712105851 -0.8471463166884547 0.266930638531388 0.45944657179525217 255 0 0
-0.04283807976741827 0.004741895788269557 0.0019067640503200312 -0.8230678512563016 0.2994024125477016 0.48261527906703344 255 0 0
-0.014674354997862404 0.0012731994313994743 -0.013062137103581284 -0.8097188150486205 0.39170751822767286 0.4369446883990871 255 0 0
-0.016521507014992 0.00642862562732327 -0.01487888400242443 -0.8496631608384865 0.2256989823949677 0.4765841819236434 255 0 0
-0.019926215155524396 0.03413774771352854 -0.009503770585046756 -0.8543459990111262 0.16939487271479958 0.49132300075573254 255 0 0
-0.017188083245788688 0.033702127104857205 -0.011188519686234077 -0.8372229979410523 0.2500698768817384 0.4863360035972548 255 0 0
-0.004464178741757974 0.040320428279503634 -0.018047079418196887 -0.8398788724646529 0.2003922217565089 0.5044268401334268 255 0 0
-0.004431351659100802 0.051309720281764976 -0.021395512464307154 -0.8651093545883253 0.16593162550474513 0.4733418429223476 255 0 0
-0.036748674001882864 -0.030944026270760677 0.008214658144756581 -0.8573542204028335 0.2828415371567085 0.4300516313377729 255 0 0
-0.040015698953693724 -0.023532693639099156 0.008817222847009476 -0.8276757148269612 0.32112991888077086 0.4602482876505985 255 0 0
-0.008194602803798023 -0.029612030420820556 -0.006686358099453338 -0.8921674718655667 0.24106946218271869 0.3819983200852303 255 0 0
-0.019395063409970326 -0.01580796541714316 -0.00036809600854675883 -0.8202960250129361 0.31124414550711554 0.4798348812201152 255 0 0
0.013554059870698021 -0.017958227927952403 -0.018223039592450696 -0.8363154178641939 0.24357295578619761 0.491170781961034 255 0 0
-0.0098364392390351 -0.0012208352565985514 -0.011428883938017054 -0.862783997960493 0.26878271798996284 0.42820511834077396 255 0 0
-0.009521393034194858 0.00038900472107361583 -0.011019847480558287 -0.7903962622204145 0.3357418959308719 0.512397431672663 255 0 0
0.019074885514405282 0.003728048499781478 -0.023081157394776675 -0.8787489801814872 0.019981735450251496 0.4768657673584805 255 0 0
-0.01228771484242941 0.01801257931010425 -0.010314995397461224 -0.8563590113158218 0.2228101043419876 0.4658378485495792 255 0 0
-0.01172093918975503 0.027039434156295394 -0.009234832800775472 -0.8775421807105712 0.20123667690535862 0.4352281251732515 255 0 0
4.978304460179217e-05 0.0488820380457789 -0.015109625758686795 -0.8701108616612432 -0.0569448072486009 0.48955528528098713 255 0 0
0.0019951703604601523 0.050701684420941695 -0.016626699194984218 -0.8944692010046787 0.12914228490290056 0.4280737304531892 255 0 0
-0.0001659444135465593 0.05714001487159384 -0.01925729056635045 -0.8807082805895748 0.07118933942622692 0.4682787657507139 255 0 0
-0.05468866115633353 -0.02603033912114905 0.026877904987500756 -0.802098754808064 0.43681310187376154 0.4072246328094312 255 0 0
-0.0023901366652990808 -0.03195549070317796 0.0008888828219327793 -0.8375889108901946 0.31349008382954946 0.4474022616106446 255 0 0
-0.011563214318182968 -0.02247741240406753 0.0005040805092741407 -0.8142268606788045 0.2996926289580798 0.49721116992414144 255 0 0
-0.02891443168408947 0.003039679524608624 0.011881080720563653 -0.8560392497852891 0.26930289147378766 0.44121735626661013 255 0 0
0.015154320213434325 -0.006248477736163105 -0.016110804502794618 -0.8632104086810469 0.3134390708577307 0.39575717201908334 255 0 0
-0.009908253706831571 0.011455635151185417 -0.0041046143916589894 -0.8211102908980683 0.40764316317433313 0.39950587191994275 255 0 0
-0.005886529275330732 0.016519784292114287 -0.0036264743596694515 -0.8915537920728404 0.11376394757413304 0.43839434311232656 255 0 0
0.0028128561262344975 0.03587165310197832 -0.010455302477180128 -0.8349851019394394 0.28086557922562194 0.4731959487838414 255 0 0
0.0065099565359074685 0.03879627355700613 -0.009798424026903785 -0.8478627756677515 0.18420432430155323 0.4971895820967938 255 0 0
0.0026934361298400766 0.04500648350477912 -0.011047252667080898 -0.8612362741506903 0.06700596346020361 0.5037680825020645 255 0 0
0.017040177659001454 0.046084611191271274 -0.023212999557344294 -0.8600619712045413 0.1967130838648603 0.4707412965994541 255 0 0
-0.03971505093903538 -0.021248092543259406 0.0224566110654581 -0.8210856128287515 0.34321042100346133 0.4560976028442383 255 0 0
-0.012817541346172301 -0.025831195809337598 0.009565103824325571 -0.88705302839433 0.13485105765434066 0.4415338232411574 255 0 0
-0.033538555989871766 -0.01068577600870399 0.020957872258153543 -0.7810536490068115 0.3919434367627682 0.4861435382186359 255 0 0
0.03199916668856051 -0.026707648517253352 -0.018918245775720766 -0.8831868568485551 0.2147218498693705 0.4169838163270194 255 0 0
-0.013308182965929616 -0.002485913215494906 0.012611278472082321 -0.8678095963810911 0.19988075683555498 0.45492217738392743 255 0 0
-0.009140972646114132 0.0022044045766754505 0.009417412184576701 -0.87514663924 0.17650436247849144 0.4505158930082206 255 0 0
0.013503048218651115 0.002112125440282081 -0.0033931145224178616 -0.8480600300888309 0.16464121071427618 0.5036739591246191 255 0 0
-0.0010655949933054965 0.018372887949146016 -0.0029205334766038704 -0.8409443841858444 0.2693221431287376 0.46933796557154295 255 0 0
0.0069260780654923915 0.018824445875502804 -0.007408133472760425 -0.856950068512175 0.16787338071657648 0.48729365697058474 255 0 0
-0.014478965127216692 0.03627953400112427 0.00830488065792856 -0.8322502666251171 0.332931573552635 0.4433013208125912 255 0 0
0.007248619129635148 0.03130658698674965 -0.0036413105331121187 -0.857877464615975 0.2388982490640134 0.45494382323339105 255 0 0
0.006766950402048333 0.04787181228202844 -0.009009372595302934 -0.8506484363432248 0.24559041962019787 0.46484683879488903 255 0 0
-0.02321666176539816 -0.021304655147969753 0.024901728348225738 -0.8400391636534984 0.33593827694268286 0.42600431642544667 255 0 0
-0.01446203020755965 -0.017850278132062136 0.02144961163916209 -0.875662244758752 0.25475608925273957 0.4102620724521265 255 0 0
0.008439168908328187 -0.018403717949215026 0.008648540579402175 -0.8608541111627385 0.25504360935580933 0.44032142421300924 255 0 0
-0.009195915374359043 -0.002284703999292259 0.014089908848973043 -0.8813095839328228 0.23574491167771067 0.4095335809017658 255 0 0
-0.006159400854742536 0.0011657435025907992 0.011655628556261177 -0.8671214918907955 0.284687679976715 0.40872147383096563 255 0 0
0.012732815926946417 -0.0013153267916025113 0.003910170432555871 -0.8668618110688502 0.20011570240021892 0.4566227175287054 255 0 0
0.003080033062421217 0.010547008237887623 0.007743381191215315 -0.8439770088227366 0.2822315051447855 0.45612299446786847 255 0 0
0.007060724338549318 0.02974422307729388 5.969830989394076e-05 -0.9134388536639872 0.10366853529761516 0.3935508803271416 255 0 0
0.007135274001265124 0.03169623034268812 8.512144507971664e-05 -0.8562117611625991 0.2575155558697628 0.4478695775914317 255 0 0
0.010233259188016763 0.03741485370192202 -0.002597970844763209 -0.8804947414890885 0.15681668146156943 0.4473673419299223 255 0 0
0.012131470773566244 -0.04336133869866421 0.011334276847361435 -0.8923058246551365 0.23522257366956437 0.385305925366822 255 0 0
-0.03288304881835502 -0.03444021314657586 -0.06507153206978877 -0.8179948138598375 0.25720285347671834 0.5145203364900589 255 0 0
-0.06071317292959649 -0.010337181960890701 -0.04978632861457083 -0.7699226599105822 0.33036429727981975 0.5459656846716878 255 0 0
-0.05559780186182428 0.015494568442955076 -0.050318168923843776 -0.8125027360327601 0.24461553887761905 0.529152664246237 255 0 0
-0.052980282198422546 0.023505606809967022 -0.05258987210095867 -0.8069751606729829 0.26412230639943524 0.5282333739163555 255 0 0
-0.046110638484359256 0.03654480673397065 -0.05816132512712091 -0.8157220752910175 0.16514544335351594 0.5543685402532204 255 0 0
-0.04558830064235442 -0.030866933035554184 -0.048513176566926164 -0.7852219515578787 0.27835475385042846 0.5531230584603248 255 0 0
-0.06370922758540354 -0.01866937394474566 -0.03530054027636881 -0.7974876545610634 0.29051665185585074 0.5287849428805254 255 0 0
-0.05614184664305999 -0.011287151703488596 -0.04685648919665836 -0.8140059944945589 0.24609741115241632 0.526146657454937 255 0 0
-0.05075959373782302 0.006787518681485305 -0.04792358457014001 -0.7867380020246164 0.3016226165469564 0.5385787902969095 255 0 0
-0.048491003356637474 0.006890037876890243 -0.0498019004772024 -0.8130803668804104 0.20215958223738326 0.5459229069229683 255 0 0
-0.05173700696198247 0.024718948561256754 -0.05211150966974609 -0.8133670125867732 0.16324966553479947 0.5583759034364252 255 0 0
-0.049389381072935556 0.028708323740912062 -0.04919339270571932 -0.8065146801206654 0.19693655301950383 0.5574496074396832 255 0 0
-0.045629277368154364 0.03655914602547519 -0.05730912745007094 -0.8188954584817721 0.1506711148721989 0.5538126427060841 255 0 0
-0.03921909730419115 -0.016637543285955375 -0.0470982531374598 -0.8018594652830003 0.3262877737910456 0.5005573759426029 255 0 0
-0.04483639259490646 0.02047236453987003 -0.04679356318932876 -0.7908437343492368 0.2667005373849658 0.5508511697356413 255 0 0
-0.04371297306131949 0.03165863376564029 -0.049794781071469785 -0.7808010268826456 0.2690365529969165 0.5638874795298646 255 0 0
-0.03692318052380028 0.04319827592759781 -0.04966687927389479 -0.8220473597336736 0.2424072981822731 0.5152444469791662 255 0 0
-0.037339882230326804 0.04383929982961901 -0.05180042289164538 -0.8112725203042725 0.1439857043756107 0.5666612874854016 255 0 0
-0.04644155361993174 -0.01720520443066348 -0.033040037049563487 -0.7867529568735498 0.3399226575933754 0.5152401107303108 255 0 0
-0.04567984628654731 -0.016630223812014927 -0.03434244693020988 -0.7825945898851774 0.3156880220322376 0.5365508183087828 255 0 0
-0.011650453168752017 -0.018269437363438057 -0.060861016102555565 -0.8097437959439788 0.27716228611878324 0.5172002050305526 255 0 0
-0.042664036679661455 0.018848706808045956 -0.04394225788584544 -0.8017796710300614 0.027501855714761738 0.5969866054235814 255 0 0
-0.04016307279171216 0.024488310406333536 -0.045498920703712864 -0.836672793876267 0.23431293776908863 0.49505159648394326 255 0 0
-0.04301468705347378 0.0305632281516153 -0.0419090762739745 -0.7835113457399249 0.29881305572616884 0.5448125630199816 255 0 0
-0.037094604156977073 0.03345300024951414 -0.044963112202520306 -0.8246137996248893 0.25787515814427864 0.5035002326516504 255 0 0
-0.03514870964013972 0.043262100903768835 -0.04946252595462147 -0.8228152674684975 0.11660378977404603 0.5562181153388256 255 0 0
-0.02883293224821104 0.04867928488922471 -0.05200159569231322 -0.8280303521174182 0.1430289527306601 0.5421332443717828 255 0 0
-0.06655436250610453 -0.021187939252550164 -0.014741843905959173 -0.8096125065244874 0.3086472891316319 0.49926389834518536 255 0 0
-0.030100670518335093 -0.030396416658136194 -0.03557567143059165 -0.808876622104193 0.2822542020573002 0.5158014885925662 255 0 0
-0.04741545712283213 -0.016857622387984772 -0.027148628326798263 -0.7653965940408184 0.38891664376225704 0.5127493520575295 255 0 0
-0.04597484929600604 -0.01653147297576385 -0.032438384137554954 -0.7920181954090466 0.324935257160563 0.5168406493252983 255 0 0
0.010389739056448022 -0.024800430390034323 -0.06282180516800395 -0.7965360660810784 0.2964026784117082 0.526949473538446 255 0 0
-0.02592638093764299 0.004545019364433939 -0.040535615720647955 -0.8184150071376057 0.14479822777561654 0.5560848400424105 255 0 0
-0.036735808933294645 0.013939887615300295 -0.03753444913810533 -0.77476986664275 0.3157317954476944 0.5477637146487074 255 0 0
-0.039024903842993064 0.02237496358714977 -0.03713408641555982 -0.8219021406042957 0.04085985964285521 0.5681613706862186 255 0 0
-0.032660893137403946 0.0304060434560961 -0.03929528288917006 -0.8054773934163161 0.2526787332805172 0.5360593497393832 255 0 0
-0.032321905060542555 0.036677853361193696 -0.041994727210913574 -0.8255796488630236 0.13423762120914165 0.548086219891832 255 0 0
-0.03107976814979274 0.045697424716719004 -0.04524831883515307 -0.8149299131786885 0.21779893450472304 0.5370780769452266 255 0 0
-0.027808043524568338 0.05557571547535797 -0.04134561237580503 -0.8187972829955025 0.20501019891659225 0.5362292678503872 255 0 0
-0.01641983455516549 -0.03471092913825927 -0.03741216071628356 -0.834809225650707 0.143303503923385 0.53156153221593 255 0 0
-0.04665506068347958 -0.017300981740209748 -0.021071328008621604 -0.8038495533852237 0.36459274691956456 0.46999789831021865 255 0 0
-0.009418413486484867 -0.024265810977038227 -0.04466300946623036 -0.8279442232157942 0.2674804504518622 0.4929123369014658 255 0 0
-0.03581758275850078 -0.005509469941800238 -0.02971185934033277 -0.8270369431305827 0.2535776422320824 0.5017053657847793 255 0 0
-0.02861081039545188 -0.00012222580272175376 -0.03604681273225013 -0.8309871107525117 0.2515828799958166 0.49615166658613896 255 0 0
-0.03171609103668993 0.01313973430250423 -0.03020398014425396 -0.8557928664537982 0.24656277887346315 0.45478056884720497 255 0 0
-0.03122979187273378 0.0135367648509917 -0.029113369147365065 -0.8051325805789509 0.27332870447545315 0.526358192678759 255 0 0
-0.028451444715478003 0.03771089259694074 -0.036139816232052036 -0.8586767404538866 -0.0072963103626301545 0.5124656273922973 255 0 0
-0.025879933224188245 0.04291744572873182 -0.03887538269723362 -0.8396909572773038 0.20719596335530627 0.5019849888552362 255 0 0
-0.0228044372097842 0.05479549677760753 -0.04447118856394028 -0.848377229706684 0.13776870455148546 0.5111515041173387 255 0 0
-0.02115544193476604 0.05584893048781489 -0.04563641598569773 -0.8236630125233411 0.22018731761842297 0.5225866310584095 255 0 0
-0.019047805469608492 0.06118267492743687 -0.04352373430360934 -0.8198499055204418 0.2089940534014865 0.5330737454245323 255 0 0
-0.0662547122906616 -0.018687013920124645 -0.0021947659802123987 -0.8550415842305338 0.2247567373533482 0.4673203379383536 255 0 0
-0.06468698121484157 -0.01724734375283493 -0.0013093075445886893 -0.8124158639366714 0.28155497643963023 0.5105950051323563 255 0 0
-0.045124806361956926 -0.017248771910067434 -0.017389268543119896 -0.803597114646394 0.32462457292087554 0.49884923973875034 255 0 0
-0.04256168904857649 -0.009575152182924512 -0.013739998367367667 -0.8095297620544559 0.34432404560487284 0.47550238271364065 255 0 0
-0.02219227059574269 0.0039707879124045165 -0.028353452008014923 -0.8169207225537105 0.1780498156313693 0.5485788878693372 255 0 0
-0.004581091357843237 0.005079259750187387 -0.03843637441796727 -0.8025314404267788 0.3026910316738298 0.5141219957079759 255 0 0
-0.031066122265589136 0.019366157069427348 -0.026279706445823336 -0.8294560835891633 0.2146169669741383 0.515695804601655 255 0 0
-0.03310277608286394 0.02303903497938442 -0.027968851684791574 -0.8309662396411545 0.27148826943362525 0.48558133009473786 255 0 0
-0.029994210973229074 0.03223974930507681 -0.02588222688354952 -0.8121593221749335 0.26526466694286355 0.5196459293365477 255 0 0
-0.02936738380081172 0.034676829003378096 -0.02690442754128114 -0.8153791202440607 0.27250563278933554 0.5107813332220603 255 0 0
-0.020513717851613045 0.03944780708462717 -0.035839332029405035 -0.8353512655312609 0.18628318187875387 0.5171912985776617 255 0 0
-0.02101574098983916 0.04387061899637723 -0.03576440947669296 -0.8178612907443946 0.23101323250001785 0.5270064473152161 255 0 0
-0.01923195047316062 0.05265297713108186 -0.03532758392392549 -0.8439458782077403 0.1698925298948239 0.5088141929448338 255 0 0
-0.017215003563184728 0.060827246173317806 -0.03901575442189453 -0.8394617946431788 0.12278973132319032 0.5293643142638462 255 0 0
-0.013732373062539271 0.06760178151449125 -0.03934191134891257 -0.8365741593189081 0.08340451223939077 0.5414677860205273 255 0 0
-0.0391093097016757 -0.016600906531652637 -0.007241085228380628 -0.784953732971359 0.4215970248372292 0.45398632770461833 255 0 0
-0.03942846164657532 -0.010336330549322925 -0.009497282972648902 -0.8097506225552342 0.3188905581995959 0.4925573480951847 255 0 0
-0.02723906772140683 -0.005155719919096052 -0.018127132485561914 -0.8377922875410648 0.18342397240333017 0.5142564820053239 255 0 0
-0.02322267221116081 -0.00047778125628444856 -0.01884899351173064 -0.837032022184369 0.2798926123425109 0.4701462744657569 255 0 0
-0.05654024046858863 0.012714392069975239 0.0013600755262022646 -0.8436084700679074 0.23769131201882868 0.481484775896863 255 0 0
-0.02032507739692091 0.007367843245223327 -0.02809731078488492 -0.8433429278903742 0.20227933101579165 0.497851160710804 255 0 0
-0.013745099968580421 0.030268962262715887 -0.03255711795524996 -0.8427858999794475 0.18177440816693827 0.5066260863115833 255 0 0
-0.014736016464890311 0.043098267881763935 -0.027295029639415436 -0.8480161725416036 0.18188213564255842 0.497782542725226 255 0 0
-0.016300085086911165 0.04584962345248014 -0.030909149205097408 -0.8460946002838133 0.10991277692166507 0.5215775194924935 255 0 0
-0.01628136681433623 0.05424216476360155 -0.03238108235104875 -0.8230572809153859 0.12582292724124475 0.5538459201913615 255 0 0
-0.01570414401486686 0.056626364805261675 -0.03243317177898469 -0.8268060594591585 0.20752745427571426 0.5228040701481386 255 0 0
-0.05579540547115647 -0.018886884355146683 0.007105507820022949 -0.8436167095448185 0.22892304057469393 0.4857006165023989 255 0 0
-0.015083368734281288 -0.0339827314582373 -0.021236167498941583 -0.8136666169750314 0.3171062921418894 0.487227088639815 255 0 0
-0.03414769167422316 -0.011336916288009702 -0.00403263761304179 -0.8508127092102874 0.2336763020163948 0.470651803058475 255 0 0
-0.0208579584660209 -0.0033491624096319006 -0.012427196215742398 -0.8482116600695147 0.21671632389505383 0.48329185248618894 255 0 0
-0.01840639901175134 0.003667403067213776 -0.015118997259230327 -0.8505051826154081 0.16418762030198297 0.4996832593592698 255 0 0
-0.01804144406932573 0.011574040999942747 -0.014966969707796096 -0.8593689451462427 0.2044537117327008 0.46870427337176673 255 0 0
-0.03087148316540045 0.020646624831210908 -0.007540174408496025 -0.8538873923238876 0.18471258884528433 0.4865774149633172 255 0 0
-0.011100430352231516 0.020406106625761172 -0.027191400864064297 -0.8491030210537142 0.1646878386062285 0.5018983716377896 255 0 0
-0.013861709082697238 0.03462439203454293 -0.024009022040613448 -0.851511427070989 0.16328550663290708 0.4982631161255694 255 0 0
-0.007929703447096426 0.04289632598194862 -0.02333684458051538 -0.8526907071948343 0.2437647653808376 0.4620576771598959 255 0 0
-0.05256803114784403 -0.030873147010542584 0.014761798355841238 -0.8070782513781829 0.35820461368262607 0.46937634248949445 255 0 0
-0.05131073536388475 -0.026791539270389075 0.00926891446073691 -0.7778001104720851 0.41733844925055147 0.4699527709533768 255 0 0
0.004281150992790028 -0.0399506859505305 -0.025234029474450193 -0.7588546118451033 0.4561406499968978 0.4648390963568203 255 0 0
-0.03350756346790118 -0.013053473611301547 -0.00019765448595271407 -0.8155645935287832 0.28288277644237897 0.5048086058839347 255 0 0
-0.022508574701646133 -0.0068349458622409265 -0.010235702876254471 -0.580927087356661 0.751374572263401 0.31298557687423467 255 0 0
-0.011972972244500113 -0.005427777702508574 -0.017347700661690058 -0.8096857873675987 0.2840701055284705 0.5135300389266002 255 0 0
-0.0028964553384925873 0.016165492501588857 -0.018549604645223206 -0.8586776576873042 0.21470837624471684 0.4653740359742923 255 0 0
-0.01798582982524144 0.03322835585902703 -0.010206040729595411 -0.8737261228238442 0.19953314426647242 0.44360927248463594 255 0 0
-0.015938025967096703 0.03521557591580787 -0.016192960096029607 -0.8815746878994936 0.04636032371796137 0.46976248257994835 255 0 0
-0.006932196531209467 0.04276925762999273 -0.02158702706239385 -0.860548330989847 0.2083655580959337 0.4648014245136936 255 0 0
-0.0075300721842208596 0.04312362849703022 -0.022916929123210306 -0.8527895410829454 0.22776155086794797 0.4699730572764426 255 0 0
-0.0492987479835999 -0.02496066879518727 0.015456559206413478 -0.8103697533252687 0.35051447753511816 0.46951087733281144 255 0 0
-0.05398980739537229 -0.021780799239456722 0.019414881766626646 -0.8511458475136318 0.23410508572615268 0.46983566818351746 255 0 0
-0.01832707138823142 -0.027945064170756012 -0.001800029806830028 -0.8123627267804103 0.32890192864039597 0.4815499158701248 255 0 0
0.023844690380319555 -0.017789071823255093 -0.023187220835473865 -0.8620689553636846 0.23507465493506394 0.44897329854382906 255 0 0
0.02033263052432377 -0.008628976467804805 -0.02639326325859115 -0.8619554783813346 0.23703104520235474 0.44816184230552675 255 0 0
-0.04474826850810654 0.022472056196244844 0.010072401210447945 -0.8334901363652802 0.30619450334070253 0.4599338199194826 255 0 0
-0.006856891249478969 0.01944301898390352 -0.014205966677963311 -0.8378915181232983 0.27737925760549603 0.4701048301254289 255 0 0
-0.011452515164875443 0.027404939564002362 -0.009394710725653566 -0.8592476724826885 0.16819944228276998 0.4831173614649423 255 0 0
-0.001959731725631575 0.035757984354691325 -0.013201134552798921 -0.864196104039304 0.22925019268178334 0.44789445511041287 255 0 0
0.03274536760220059 -0.04647850157526909 -0.018387558524760594 -0.8494360809630505 0.32128093367254346 0.4186130743498497 255 0 0
0.000200671493613247 -0.026343486479383782 -0.005772662298111075 -0.8577199895643626 0.240906087462499 0.4541813256015934 255 0 0
-0.02502534094931741 -0.007647991284194383 0.009463080964363602 -0.8414171336246498 0.3398203029801937 0.4201658826289061 255 0 0
-0.015176071286153059 -0.002474241301061081 0.005777061025762642 -0.829639699978958 0.3106975509196946 0.4638588148039533 255 0 0
-0.012165092281320122 0.005199100655911448 -0.0011863265474507667 -0.834117047225768 0.3150000044690454 0.4527954822122979 255 0 0
0.01001062440446776 0.006259293814761813 -0.008976743726861414 -0.8793370668708775 0.17849786680817092 0.4414802763112461 255 0 0
-0.0004679935367892796 0.027860996706138924 -0.0076923528699904264 -0.8633574877423145 0.2585434842979753 0.43332333780485655 255 0 0
0.0010597643092964404 0.03150363789851385 -0.010004758855930718 -0.8371266862120601 0.2839548676300488 0.4675345381689108 255 0 0
0.006551561222401747 0.04686306141749233 -0.010201145876665263 -0.8796823379354516 0.1442595446294701 0.4531535811485062 255 0 0
0.004411994748528936 0.055732693884346596 -0.016588594656740563 -0.8477311817780623 0.19424443440512146 0.4935797231894806 255 0 0
-0.01100114139574826 -0.03668999318972793 0.013232677918142588 -0.8321864485971618 0.3419869731607836 0.4364752283458578 255 0 0
-0.04092373112256098 -0.010108708573423636 0.02474952234602862 -0.8588662691482066 0.235899652620108 0.4546428110210835 255 0 0
-0.008822118491684239 0.001393787891496967 0.005212339449462977 -0.859015340622121 0.2951937922332395 0.418274156030253 255 0 0
-0.006162147506283078 0.0044273850673157145 0.0036333390159192236 -0.8564043473828696 0.3048168889704243 0.41672323907134473 255 0 0
-0.0028913600533203576 0.014521506126970257 -0.0008588693006438275 -0.8702765584384414 0.23866953727127868 0.43087766687455015 255 0 0
0.007149010761824948 0.03127634230485324 -0.0033447511671763075 -0.8431028914753655 0.29541968528069606 0.44933809535196617 255 0 0
0.010171586811829836 0.03764454294164565 -0.004174605011046495 -0.8827200259466543 0.10999278731702163 0.45684454963474214 255 0 0
0.00681424925366092 0.04612274733878055 -0.009629110879809721 -0.8717734124912573 0.10274260494715663 0.47901469121731605 255 0 0
0.0020726461384152906 -0.04133144207365938 0.010987504397402204 -0.888885656150984 0.29183986574013093 0.3531455550531777 255 0 0
0.01795919807282731 -0.02724279761826201 0.00014987295456198035 -0.856488980040116 0.30851886406896845 0.41381485906554294 255 0 0
0.006303843037251511 0.02804243470045803 0.002447502123644252 -0.8740254487579087 0.20216531216188055 0.4418242880173359 255 0 0
0.010059795589567155 0.036761605427330146 -0.0031339401475383166 -0.8742131567014626 0.14497474607687805 0.4633936551680534 255 0 0
0.006553164173558446 -0.04227314483364203 0.015796245593748537 -0.8393540216672031 0.3408564168270838 0.4234403493042363 255 0 0
-0.04625117213099983 -0.027663358373843594 -0.05841660164479047 -0.9530877048550976 0.19858295002458123 0.22844832854187624 255 0 0
-0.02837366758887716 -0.016238401420020365 -0.06472760605257318 -0.9145711222263843 0.3696592596421035 0.1640478410416421 255 0 0
-0.045970391613039285 -0.00325561921401879 -0.06214157617770956 -0.9539905543042715 0.26716179904554666 0.1361124367167668 255 0 0
-0.044262396788276925 -0.03325805635966783 -0.05546390860864546 -0.9776645155791116 0.12027746674755913 0.17235262101358068 255 0 0
-0.064804751571787 -0.017339733011026065 -0.048162579884298826 -0.9332009133630003 0.30723670087581484 0.18639116109249143 255 0 0
-0.05931651376482083 -0.018762787623604227 -0.04927594707740113 -0.9511675086609864 0.25177968875778733 0.17857031891298178 255 0 0
-0.05864724156844758 -0.01008316055789657 -0.04975547608092336 -0.9367563691921085 0.26260494768350867 0.23135718322576407 255 0 0
-0.04569488753884554 -0.009881467582061404 -0.0525558811546509 -0.9583319719220587 0.22655037651358967 0.17399643241609727 255 0 0
-0.03362997075402396 -0.007095741970049196 -0.06117174870146712 -0.9073954334900384 0.3707171650863538 0.1979957342766823 255 0 0
-0.06101786964024625 -0.024955020932967836 -0.04730330595923625 -0.8881161990895702 0.43905421516260795 0.13594488979965852 255 0 0
-0.008705786525258774 -0.03651021326402851 -0.05555420648588673 -0.9241282256574007 0.3629046821805247 0.11952913533844602 255 0 0
-0.05666542613509884 -0.011632410513162883 -0.04483253876194729 -0.9610980794958057 0.2345674946643393 0.14583748501797852 255 0 0
-0.0565032091490123 0.0006530758865045672 -0.04439123686862659 -0.9492136958451052 0.2652367351280241 0.1692419391247409 255 0 0
-0.04850507844403462 0.007587083763373137 -0.048891237407309523 -0.9547131622913211 0.27055771231492926 0.12377924726955573 255 0 0
-0.05442635143072738 0.01659053485466433 -0.04971056810371495 -0.9499133765575036 0.28224088561592187 0.1341814425465099 255 0 0
-0.044636358586679026 0.02815338695681907 -0.05166780299893643 -0.9577991794918627 -0.2313133442727342 0.17063079594867492 255 0 0
-0.04254196260376497 0.036941031841992156 -0.04990897029470519 -0.9905619159041181 0.12165967159967284 0.06313489579165087 255 0 0
-0.08453770225723234 -0.012832230782575782 -0.03488428112578548 -0.9276590314472707 0.29684516739256284 0.22656493102418335 255 0 0
-0.053324057130229474 -0.017124923153722466 -0.039026301295761165 -0.9494625947784485 0.2338630602076007 0.20935340978095374 255 0 0
-0.03988978630800388 -0.016578684509587216 -0.04694402474659358 -0.960225325041391 0.23746174424292069 0.14689875823254803 255 0 0
-0.05502964748213257 0.00039652451877197903 -0.043328879703186454 -0.9490815630137409 0.2531464968899509 0.1875127671913055 255 0 0
-0.04708209787491657 0.01682425583268521 -0.04618162284596748 -0.9697008840598291 0.16200308395133634 0.18285293610943792 255 0 0
-0.04109474748544073 0.026796044438593736 -0.048430984621771936 -0.9655816242574747 0.23119416201982637 0.11916956970740158 255 0 0
-0.036411034712683366 0.04344959702441906 -0.048472355397421674 -0.9659368672127032 0.20732639561504945 0.15486037014220452 255 0 0
-0.030754415466072715 0.04625726279452985 -0.045380885303603444 -0.9815684129726433 0.03372478928730783 0.18811190616729465 255 0 0
-0.02767327645423645 0.05341195169967186 -0.0492603139677429 -0.961813964330201 0.20180872354472007 0.18489763957572164 255 0 0
-0.02358316566756502 0.05702110390850616 -0.04746044448018866 -0.9866432068790953 0.07547396288193753 0.14435672220659035 255 0 0
-0.06465093043266801 -0.023742121407521827 -0.03068996489129991 -0.9515045846206541 0.2606454817842319 0.16341039829625936 255 0 0
-0.012283132417150733 -0.026988636436941882 -0.03945751491546594 -0.9711230078517149 0.22439545261143162 0.08103569872808432 255 0 0
-0.028594401279469883 -0.016097908567659747 -0.04032056717950948 -0.9923169206099891 0.0807998439300513 0.09369372600119937 255 0 0
-0.05256411123921245 0.012348429293281865 -0.03789136275477607 -0.9916271040072988 0.06564182923873532 0.11120628063329231 255 0 0
-0.04309109960097923 0.018247726206449794 -0.03803735455857153 -0.9145111503438926 0.3858051815009511 0.12175269123805095 255 0 0
-0.04198544832395501 0.026137476247141106 -0.040557539656073685 -0.9906095849489368 -0.006645245757518988 0.13655947757705245 255 0 0
-0.026277213573340896 0.04533592710254328 -0.039665117528066104 -0.9758005514706195 0.1326723769534939 0.1738140504767805 255 0 0
-0.021039606201921024 0.05585173231132651 -0.045919132414250316 -0.95450614061453 0.27808707234505947 0.10763646094009603 255 0 0
0.028974438721774076 -0.04729595799850192 -0.041612824626146766 -0.971342489204241 0.18058735052387373 0.15453794840516158 255 0 0
-0.04479048740867975 -0.009169026452226725 -0.03276087241099368 -0.9179873567767318 0.3754012731552123 0.12795740272260483 255 0 0
-0.03434853398497506 -0.0048950195697802235 -0.02947888948052793 -0.9460470179307983 0.2999387251749551 0.12260424545939093 255 0 0
-0.034206150805151436 -0.0028522952574722427 -0.030582425591958035 -0.9583362034693176 0.2629132696941242 0.11166169324687635 255 0 0
-0.04378525094675878 0.008761371177819083 -0.03315625578892528 -0.9416994388143446 0.304554904684898 0.14299817120900954 255 0 0
-0.02825532455098012 0.007905085092480862 -0.036207005487935595 -0.9625052845609221 0.15946768583704105 0.21943936375700024 255 0 0
-0.03697198934473156 0.02157221067353965 -0.03045958213730672 -0.9582683374052764 0.2583951153050527 0.12228555888990285 255 0 0
-0.035057356275279394 0.028238937173157536 -0.03211021446674052 -0.9795987029208177 0.11454390052386343 0.16512442608115452 255 0 0
-0.0305778838417351 0.0382125342322544 -0.03476774795886024 -0.979629225672117 0.13063661811493912 0.152514439370638 255 0 0
-0.026662808755672063 0.040809801888261665 -0.038778703016036656 -0.9845708699403527 0.14032510469083484 0.10454217837027938 255 0 0
-0.010909182151460306 0.048541067983948055 -0.04124627617678056 -0.978154982158203 0.16063722762446106 0.1319413202155145 255 0 0
-0.01894542752857087 0.05900880911903901 -0.04043173099574984 -0.9743808699214975 0.1870398324140796 0.12489203906389994 255 0 0
-0.01450904934693864 0.06305795323116672 -0.03622056099604454 -0.979434220656097 0.08582606144525125 0.18259927323124758 255 0 0
-0.013832748851247634 0.06812010146374267 -0.039572797241417504 -0.9847407728622812 0.06675777560566974 0.16071406179541367 255 0 0
-0.049588510703917565 -0.02380847062502303 -0.023887930349974357 -0.9543085217380216 0.26416732339376964 0.1396813179675915 255 0 0
-0.05598718891115051 -0.01622087026109592 -0.01889405484231388 -0.9545516320499483 0.27907453850890135 0.10463548015288021 255 0 0
-0.04433666804839076 -0.009093165360363531 -0.022187987166182893 -0.9714004289322935 0.19443250736002834 0.13629822725130655 255 0 0
-0.006491535373014279 -0.013544353293785533 -0.03212487351626071 -0.9658860320917076 0.2200994562889959 0.13645659511883315 255 0 0
-0.009888084414726106 -0.004704590719093599 -0.032393311835710065 -0.9840745974405183 0.13631538254959885 0.11408463153570825 255 0 0
-0.03075759946667611 0.013934595652771886 -0.02721127091984879 -0.9872983496301163 0.1287560107270605 0.09307985023248479 255 0 0
-0.032527291353612986 0.016437349156146808 -0.02723996899375107 -0.9624639024447158 0.21396263810005461 0.16698271164451056 255 0 0
-0.007699002582452152 0.027311056785174453 -0.029378517362547485 -0.9499992956172228 0.30348129392664014 0.07348770348427569 255 0 0
-0.028264654495451902 0.035168274891637485 -0.030277652928889634 -0.9637281515571253 0.21939726650453367 0.1519634474030683 255 0 0
-0.024758101572692648 0.04034895423332893 -0.03291672041173613 -0.9833735656855196 0.08178895952041138 0.16213265066455806 255 0 0
-0.01962516679874149 0.046299775023902257 -0.030316348767132947 -0.9666511765720507 0.20860880341479898 0.1485525831808917 255 0 0
-0.013249077036660784 0.054092446360698904 -0.03299241393975459 -0.9880272921007718 0.053574786395315446 0.14467830634449777 255 0 0
-0.013414121518372402 0.06149051310161609 -0.030709057694663602 -0.9878215803702584 0.023177591210678396 0.1538548816920537 255 0 0
-0.012585849557164241 0.06391266416183684 -0.03559435086762712 -0.984976804237275 0.11464055360022446 0.12914425494290774 255 0 0
-0.009166902287190637 0.06791161609982227 -0.031148257473780222 -0.9735873754700525 0.19330688341490024 0.12149103320720069 255 0 0
0.011602794533184135 -0.03993965288006837 -0.026939128719466132 -0.944031269067678 0.30104591511715373 0.1348195831982316 255 0 0
-0.04772849226226017 -0.017748925170362778 -0.020014670657608313 -0.9812016768620918 0.19061941566382717 0.030124868381461254 255 0 0
-0.04616186095312147 -0.007873501890828555 -0.014688343597313955 -0.9931602672138983 0.0533106734965561 0.10387808103234147 255 0 0
-0.031070380387091423 0.010345128614368287 -0.02260568802510826 -0.9862274381850504 0.12672372142308172 0.10628517582258402 255 0 0
-0.03309136709786198 0.017356280074949243 -0.02222510899573031 -0.9619148800998243 0.22423094651700037 0.15633376496019935 255 0 0
-0.010412477779726093 0.020447431531207177 -0.022269948648994398 -0.9643219427252477 0.22555090096140692 0.13860007883872777 255 0 0
0.0018454589822719525 0.03122949291935362 -0.0256005681322818 -0.9648669878357167 0.22061315342453847 0.14269384121577255 255 0 0
-0.01948038870311708 0.04207124943049967 -0.026720148017627537 -0.9921674527139218 -0.015892541713542672 0.1238998502543523 255 0 0
-0.007992409221985408 0.04410474371706535 -0.0240738083815506 -0.9823171265455417 0.12447656569975038 0.13985223447233872 255 0 0
-0.01282426034069517 0.051830469363506604 -0.027726813429611835 -0.9877427080305669 0.04758249677820607 0.14866152404974978 255 0 0
-0.008385565141930562 0.06793348896152332 -0.030672735573100143 -0.9698190173186028 0.17855417796486844 0.16604059497144058 255 0 0
-0.005265182910888178 -0.043136290839697417 -0.018517844085925397 -0.9374939652745969 0.32256762241915554 0.13059553606676608 255 0 0
0.024246195226486633 -0.04520469644383543 -0.020225744986613073 -0.9422216857749399 0.3142056409694073 0.11615984692842136 255 0 0
0.04821384224063885 -0.044237638597690115 -0.02189535971557456 -0.9623563857634437 0.2520907067667337 0.10158967635626508 255 0 0
-0.04086430190623025 -0.00934718929104239 -0.010736869266376958 -0.9217280088095628 0.38022799506219646 0.07644703752887215 255 0 0
-0.03618470425424358 -0.007555226012335103 -0.01372934374816566 -0.9340412366434288 0.32323038415731403 0.15195093618378794 255 0 0
-0.022065830481637017 -0.005415581957209092 -0.01238860742954423 -0.9443469447863613 0.325909332502615 0.044631321517126774 255 0 0
-0.02075305693281959 0.00031813242604239456 -0.015928855245436746 -0.9767836475499796 0.19067988340325306 0.09764675081270704 255 0 0
-0.02125785698962146 0.01406747684019119 -0.013362478778621553 -0.9594950776039552 0.2471841812946367 0.13516351790139233 255 0 0
-0.02527075098768472 0.02538659866143944 -0.01933888912252553 -0.9809043427908226 0.1485675326899921 0.12551636755623657 255 0 0
-0.022122235563634463 0.028056233308557 -0.01618386267232927 -0.966210446083918 0.22047758014793128 0.1335178285115088 255 0 0
-0.010747984975091773 0.0432297182216595 -0.018334107844360792 -0.989865732074423 0.13645118829343097 0.03933072180976855 255 0 0
0.001633893023716415 0.050782878749301485 -0.022863956333172702 -0.9909502880924063 0.05235418549360199 0.12359840529261908 255 0 0
0.0019166245949414629 0.06336236337196534 -0.020123973322150407 -0.9745383824861306 0.17883168504119643 0.13525594067042881 255 0 0
-3.3239187591904695e-05 -0.04124374642027134 -0.009099033122652256 -0.9616151585280922 0.262787744163301 0.07898663435389262 255 0 0
0.008931187992044287 -0.030287897111147405 -0.012903880883398056 -0.9690705288397977 -0.06597389420051251 0.23780192475708503 255 0 0
-0.03206424402340935 -0.01238066961457282 -0.009931944412913368 -0.9437736099614222 0.30694571358823425 0.122783150514209 255 0 0
-0.051257088578174015 -9.743009955348603e-05 -0.0046424033283462285 -0.9642390883371084 0.238560635160122 0.11546343089836343 255 0 0
-0.008655176607007986 -0.006492875985730173 -0.013894903121429172 -0.9797438578760879 0.1893902874369304 0.0650637531859097 255 0 0
-0.008159643937685757 -0.001608527070969562 -0.014047888952690851 -0.962360707875812 0.2608182687521347 0.07639174446172448 255 0 0
-0.0072765819154089195 0.003627947180383534 -0.013058176923391299 -0.9545331271569775 0.2634112646235943 0.13957440606830518 255 0 0
-0.01695550085844555 0.034793427045648334 -0.011754471647223208 -0.9956044703779308 0.013366803826312392 0.09269879782903921 255 0 0
-0.0011117925768688863 0.04442992071882185 -0.014567721992986851 -0.9688111027752098 0.22896066352240466 0.09477373950025429 255 0 0
0.009030434971542656 0.049896095093948406 -0.017168753406682183 -0.9826399944421507 0.1444343232239084 0.11643610950895703 255 0 0
0.0030533497766243034 0.05944814621812965 -0.01639640838407011 -0.9866883171724686 0.08905543402868578 0.1360709168974922 255 0 0
-0.062486803466968 -0.026269957896332075 0.003381136317330752 -0.9418660875734729 0.3337974801877751 0.03830816230688876 255 0 0
-0.036169929724876426 -0.03328925922688458 0.0025874603925310213 -0.9658307226914796 0.23736534584857633 0.10406107675514317 255 0 0
0.028247236207538773 -0.046466115348344966 -0.003644690690480748 -0.9425056207301878 0.32944304778670325 0.05612871953831823 255 0 0
-0.04360563273463769 -0.016623144697873377 0.002612648022144448 -0.9486187290231579 0.29945255035196644 0.10222855293014516 255 0 0
-0.015915172192835003 -0.016157874159201085 -0.0018962352366875268 -0.994429833196084 0.104889108853495 -0.010372159540236249 255 0 0
-0.02382562665416632 -0.005505114861173055 -0.0010692959000224017 -0.9524267533100821 0.286474278950555 0.10399888018135446 255 0 0
-0.02216655804124834 -0.005061254842027574 -0.0013300131386674297 -0.8563616632951626 0.5084497560952894 0.09013072264762491 255 0 0
-0.001663179706179907 -0.0009594243244507306 -0.0024174254873596396 -0.9806002327746235 0.1886598110769312 0.05320393939146625 255 0 0
-0.012250300237630407 0.005174096760523744 -0.0026233639007876286 -0.9842765340766578 0.175789204152159 0.017258625947401768 255 0 0
-0.010525127296608594 0.016227083041657292 -0.00778446630055403 -0.9147015723668006 0.3906960601366896 0.10333258006732836 255 0 0
-0.011435676420577745 0.02770033823413326 -0.004677968389768972 -0.9777120300250319 0.1894942007627001 0.09039432626905647 255 0 0
0.022816945174417014 0.027243888036020236 -0.007102391055247681 -0.9787329608432431 0.17836416665770996 0.10133121637244623 255 0 0
0.00749986013198134 0.039433000636717896 -0.009534355886665902 -0.9836526285012044 0.16011972322391177 0.08239648461778738 255 0 0
0.006610020220596979 0.04365873416535515 -0.011311032066942034 -0.9980388993159673 0.04678435768339319 0.04158821141050311 255 0 0
0.00565598191939054 0.04812449710887559 -0.011638213523767593 -0.9756415300598199 0.19115829839101783 0.10762021082856243 255 0 0
-0.022422316977568024 -0.03239008143681671 0.0035494725659323545 -0.9879938063294761 0.06580727469571103 0.13977711276069815 255 0 0
-0.05563873039881406 -0.018889912472975917 0.007426882610164803 -0.960834461960448 0.2672785942930654 0.07320717001700992 255 0 0
-0.025314575413039275 -0.018665356750702383 0.005911255944077862 -0.9596267558563129 0.2792039519352391 0.03408287940349645 255 0 0
-0.010537948060691305 -0.016192212541749296 0.0004383917447368796 -0.9741191756155211 0.21798563098141688 0.05978374681944234 255 0 0
-0.022711578864732185 -0.004609167305788753 0.0027288920244154663 -0.9842651287933724 0.14763186352052046 0.09709268311682623 255 0 0
0.003444324351782546 0.0011107861169741273 0.0032099977446511108 -0.9901921976071267 0.13561380537131917 0.03359029012495935 255 0 0
0.001392916350693496 0.01846855092149899 0.0023725063983879163 -0.9842074410393059 0.12292421449365946 0.1273787678303497 255 0 0
0.007110794372506168 0.03136563485308094 -0.0034303589128866913 -0.8708381320683464 0.4699417563512043 0.1442071197037744 255 0 0
0.012291791064101498 0.03659751334264555 -0.005444721356064566 -0.9877307428101473 0.13584097750383908 0.07704030463670336 255 0 0
-0.06713699775892912 -0.02062992649282966 0.014438942330578165 -0.9553396435498417 0.2932179073362287 0.03673451074159106 255 0 0
-0.028104122598563652 -0.028180040313315335 0.011029472940773492 -0.9538850777225902 0.2733278111102401 0.12407725888273362 255 0 0
-0.028865930794971684 -0.02016209355673751 0.01162929429152166 -0.9786340868618386 0.1544294391480635 0.13574561634362184 255 0 0
-0.02757340235247918 -0.015276298305551078 0.009792893344566726 -0.9572246267894382 0.2885249018195787 -0.02178060829781902 255 0 0
-0.024621415741439612 -0.007004226122541313 0.009304449787430821 -0.9723941540062743 0.2182094511609784 0.08266949061441393 255 0 0
-0.009473311663439121 -0.007445986076164535 0.00711402084156397 -0.9814437447733259 0.1822753650008403 0.059530388534942656 255 0 0
-0.008341271447866005 0.0019359185335406648 0.009060016217829175 -0.953494749430981 0.30011276325377795 0.027930129604647462 255 0 0
0.001261492198087244 0.011329456170331514 0.008185656493639046 -0.9900204078019555 0.10469436327175928 0.09433282798035228 255 0 0
0.0036683280921019357 0.02165433455067048 0.0025406092664190943 -0.960504762720837 0.25918483922827174 0.10126114706442757 255 0 0
-0.027129606461579026 -0.03724653371857914 0.016697706108277588 -0.9104499830979911 0.4103609396335825 0.05181435611788355 255 0 0
-0.04607305422095087 -0.021954362073665107 0.02265013829401024 -0.9726253170407878 0.22297816709456988 0.06542728521383862 255 0 0
-0.005990528120062288 -0.018932171235115786 0.015641653944724193 -0.9823867186309658 0.1856262942874981 0.021429277322734547 255 0 0
0.007362609711521473 0.0028438301748991424 0.010307129846395938 -0.9712200684891052 0.22777700781825813 0.0696362927888814 255 0 0
0.009154357873410235 0.00986706430736306 0.009454136311222605 -0.9600929569678044 0.2745668270853954 0.05324069350671745 255 0 0
-0.02529307508560963 -0.035784171486841904 0.027015476875147215 -0.9695552026009768 0.24453132232356323 0.012928322090221569 255 0 0
-0.05182830689758744 -0.005388670713934146 -0.05853793774193443 -0.9623890551217453 0.2155930388730974 0.1653086451802729 255 0 0
-0.04126734493514139 -0.0044655577632445875 -0.06036658472102423 -0.9619193203696081 0.21473486400824235 0.16911581617055485 255 0 0
-0.042777879635257254 -0.03300669397317066 -0.05376641467081002 -0.9566796872894318 0.2662585284917073 0.11777254320606982 255 0 0
-0.053225495475234474 -0.02520733382044807 -0.054740549531737306 -0.9199827321636854 0.354749766748061 0.1666864586966714 255 0 0
-0.057915683607399404 -0.01659634201730073 -0.05498482125946687 -0.9567842478086701 0.20590372041715257 0.2053474155268882 255 0 0
-0.057031919425875155 -0.0060975691049089675 -0.051813122222577404 -0.9619508154446776 0.1694055353191523 0.2143650934003743 255 0 0
-0.05340429849657158 -0.0008308849311563227 -0.05282902292757208 -0.9424455134045847 0.30519435045239945 0.13657548358144872 255 0 0
-0.04225652098955557 0.040315224374633335 -0.05599014026500186 -0.9710508144714635 0.10651653993642714 0.2138095938780085 255 0 0
-0.06647151577980237 -0.021331821133450835 -0.046110978676065464 -0.9429133111282307 0.2764283437781925 0.18574675893065157 255 0 0
-0.05952256136681178 -0.012311574128779312 -0.04735203251995303 -0.9230297576073913 0.3454900167617768 0.16927112833908708 255 0 0
-0.05669227734097848 -0.0014543183883395927 -0.04446029489657119 -0.9648856880021917 0.19082275996472373 0.18050563251040858 255 0 0
-0.04914171126098399 0.02744261054371694 -0.05165195116828476 -0.9511224846079253 0.271137671085495 0.1478187491206073 255 0 0
-0.043702271152449845 0.028526378454230478 -0.0481709270416706 -0.9575466206847814 0.16129239370922385 0.23893353248697494 255 0 0
-0.04101476931056769 0.03964981234123188 -0.05526506326307244 -0.9761895738776628 0.16099225821930993 0.14538022095867825 255 0 0
-0.02922202011257191 0.0488137471280696 -0.05195569615994808 -0.960642182581285 0.26310756269682634 0.0891123307808787 255 0 0
-0.07107465190183904 -0.0163454205243265 -0.03916635353960726 -0.9628093563378601 0.21710250930243127 0.16082488552106405 255 0 0
-0.041696922682330606 -0.017385039180930623 -0.04272146061488975 -0.933461936927114 0.3365796835153867 0.12394728295917865 255 0 0
-0.05065977097947438 -0.0030956487596655036 -0.04055385716545515 -0.9511159396989463 0.2599190430218905 0.16679496492752766 255 0 0
-0.038132668290333904 0.005731584550640406 -0.04761642059825738 -0.952642460552774 0.24204644777784856 0.184081121981809 255 0 0
-0.037928232727066025 0.03328256274053684 -0.04539171006497737 -0.9570304594199445 0.22390131334294505 0.18428483829592252 255 0 0
-0.033725673668147826 0.042178438826315695 -0.046803293342683586 -0.9701416406202753 0.15463864707307806 0.18684776146908616 255 0 0
-0.027380002713420892 0.053558051531040735 -0.04974636998199297 -0.9779858028610576 0.12658917223449231 0.16588836871582846 255 0 0
-0.055876722949441016 -0.021498681082352977 -0.03597482201238435 -0.9559350821892602 0.23121170982881825 0.18091230991241786 255 0 0
-0.0497942400939414 -0.0075413700179288445 -0.03442635969036406 -0.9479711160556904 0.2866226809056917 0.13855757617165088 255 0 0
-0.059977462854455044 -0.0037736322423370383 -0.03211606628472477 -0.9725083122138394 0.1647302587499974 0.16459503190299637 255 0 0
